-0.755336 0.283172 0.574985 0 0 0
0.283172 0.574985 -0.755336 0 0 0
0.574985 -0.755336 0.283172 0 0 0
0.474727 0.861789 0.151552 0 0 0
0.151552 0.474727 0.861789 0 0 0
0.554313 -0.811504 -0.13817 0 0 0
-0.941256 0.266762 0.150098 0 0 0
-0.554313 -0.811504 -0.13817 0 0 0
-0.13817 -0.554313 -0.811504 0 0 0
-0.811504 -0.13817 -0.554313 0 0 0
0.150098 -0.941256 0.266762 0 0 0
0.283172 -0.574985 0.755336 0 0 0
0.529855 0.840519 -0.0271889 0 0 0
-0.564834 -0.533368 -0.615747 0 0 0
-0.244601 -0.655798 0.707127 0 0 0
0.707127 -0.244601 -0.655798 0 0 0
-0.655798 0.707127 -0.244601 0 0 0
0.811504 0.13817 0.554313 0 0 0
-0.639707 0.758728 0 0 0 0
0.758728 0 -0.639707 0 0 0
0 -0.639707 0.758728 0 0 0
-0.151552 -0.474727 -0.861789 0 0 0
-0.474727 -0.861789 -0.151552 0 0 0
0.17501 -0.291813 -0.930346 0 0 0
-0.930346 0.17501 -0.291813 0 0 0
-0.291813 -0.930346 0.17501 0 0 0
0.266762 0.150098 -0.941256 0 0 0
-0.945387 -0.298174 -5.01053e-10 0 0 0
-0.298174 -5.01053e-10 -0.945387 0 0 0
0.884512 0 0.458673 0 0 0
-0.85674 -0.454493 0.205891 0 0 0
-0.454493 0.205891 -0.85674 0 0 0
0.205891 -0.85674 -0.454493 0 0 0
0.305795 -0.800581 -0.494786 0 0 0
-0.983988 -0.121355 -1.39197e-09 0 0 0
-0.121355 -1.39197e-09 -0.983988 0 0 0
-0.941256 -0.266762 -0.150098 0 0 0
-0.266762 -0.150098 -0.941256 0 0 0
-2.2968e-09 -0.989573 0 0 0 0
0 -2.2968e-09 -0.989573 0 0 0
-0.989573 0 -2.2968e-09 0 0 0
0.861789 0.151552 -0.474727 0 0 0
-0.897031 -0.252574 0.348526 0 0 0
0.454493 0.205891 -0.85674 0 0 0
-0.85674 0.454493 0.205891 0 0 0
0.205891 -0.85674 0.454493 0 0 0
0.266762 0.150098 0.941256 0 0 0
0.150098 0.941256 0.266762 0 0 0
-0.674494 0.43163 0.581728 0 0 0
-0.283172 0.574985 -0.755336 0 0 0
-0.755336 -0.283172 0.574985 0 0 0
0.919676 0 0.381063 0 0 0
0.150098 -0.941256 -0.266762 0 0 0
0.581728 -0.674494 0.43163 0 0 0
0 0.639707 0.758728 0 0 0
0.758728 0 0.639707 0 0 0
0.639707 0.758728 0 0 0 0
-0.581728 -0.674494 0.43163 0 0 0
-0.474727 0.861789 0.151552 0 0 0
0.808529 0.307272 -0.491725 0 0 0
-0.416144 -0.896898 -0.0853937 0 0 0
0.348526 -0.897031 -0.252574 0 0 0
-0.0853937 -0.416144 -0.896898 0 0 0
-0.896898 -0.0853937 -0.416144 0 0 0
-0.244601 -0.655798 -0.707127 0 0 0
-0.707127 -0.244601 -0.655798 0 0 0
-0.655798 -0.707127 -0.244601 0 0 0
0.43163 0.581728 -0.674494 0 0 0
-0.13817 0.554313 0.811504 0 0 0
0.554313 0.811504 -0.13817 0 0 0
0.674494 0.43163 -0.581728 0 0 0
0.861789 0.151552 0.474727 0 0 0
0.244601 -0.655798 0.707127 0 0 0
0.707127 0.244601 -0.655798 0 0 0
-0.655798 0.707127 0.244601 0 0 0
-0.307272 -0.491726 -0.808529 0 0 0
-0.491726 -0.808529 -0.307272 0 0 0
-0.402247 0.735386 0.529495 0 0 0
0.735386 0.529495 -0.402247 0 0 0
0.581728 0.674494 -0.43163 0 0 0
0.0853937 0.416144 -0.896898 0 0 0
-0.896898 0.0853937 0.416144 0 0 0
0.416144 -0.896898 0.0853937 0 0 0
-0.416144 0.896898 -0.0853937 0 0 0
0.896898 -0.0853937 -0.416144 0 0 0
-0.0853937 -0.416144 0.896898 0 0 0
-0.402247 0.735386 -0.529495 0 0 0
-0.529495 -0.402247 0.735386 0 0 0
0.897031 -0.252574 0.348526 0 0 0
-0.150098 0.941256 -0.266762 0 0 0
0.941256 -0.266762 -0.150098 0 0 0
-0.266762 -0.150098 0.941256 0 0 0
0.897031 0.252574 0.348526 0 0 0
0.529495 0.402247 -0.735386 0 0 0
-0.735386 0.529495 0.402247 0 0 0
0.808529 0.307272 0.491725 0 0 0
-0.85674 0.454493 -0.205891 0 0 0
-0.205891 -0.85674 0.454493 0 0 0
0.454493 -0.205891 -0.85674 0 0 0
5.70644e-10 0.945387 0.298174 0 0 0
0.43163 -0.581728 0.674494 0 0 0
-1.39197e-09 -0.983988 -0.121355 0 0 0
0.413389 0.356101 -0.831672 0 0 0
-0.674494 0.43163 -0.581728 0 0 0
0.574985 0.755336 0.283172 0 0 0
0.476062 -0.256773 -0.830878 0 0 0
-0.830878 0.476062 -0.256773 0 0 0
-0.554313 -0.811504 0.13817 0 0 0
-0.811504 0.13817 -0.554313 0 0 0
0 0.749996 0.647174 0 0 0
0.647174 0 0.749996 0 0 0
0.749996 0.647174 0 0 0 0
0.13817 -0.554313 -0.811504 0 0 0
0.626279 0.768124 -0.0936643 0 0 0
-0.0936643 0.626279 0.768124 0 0 0
0.755336 -0.283172 0.574985 0 0 0
-0.283172 0.574985 0.755336 0 0 0
0.574985 0.755336 -0.283172 0 0 0
-0.266762 0.150098 -0.941256 0 0 0
-0.941256 -0.266762 0.150098 0 0 0
-0.307272 -0.491726 0.808529 0 0 0
-0.491726 0.808529 -0.307272 0 0 0
-0.897031 -0.252574 -0.348526 0 0 0
-0.252574 0.348526 -0.897031 0 0 0
0.808529 -0.307272 -0.491725 0 0 0
5.70644e-10 0.84849 0.509626 0 0 0
-0.298174 0 0.945387 0 0 0
0.808529 -0.307272 0.491725 0 0 0
1.39197e-09 0.983988 -0.121355 0 0 0
0.247124 0.959701 -0.088502 0 0 0
0.959701 -0.088502 0.247124 0 0 0
-0.088502 0.247124 0.959701 0 0 0
0.0936643 -0.626279 -0.768124 0 0 0
-0.768124 0.0936643 -0.626279 0 0 0
-0.626279 -0.768124 0.0936643 0 0 0
0.252574 0.348526 -0.897031 0 0 0
-0.735386 0.529495 -0.402247 0 0 0
0.529495 -0.402247 -0.735386 0 0 0
0.0271889 -0.529855 0.840519 0 0 0
-0.581728 -0.674494 -0.43163 0 0 0
0.983988 -0.121355 0 0 0 0
0.307272 -0.491726 0.808529 0 0 0
-0.491726 0.808529 0.307272 0 0 0
3.59713e-09 0 0.989573 0 0 0
-0.581728 0.674494 0.43163 0 0 0
0.283172 0.574985 0.755336 0 0 0
0.247124 0.959701 0.088502 0 0 0
0.959701 0.088502 0.247124 0 0 0
0.088502 0.247124 0.959701 0 0 0
0.735386 -0.529495 -0.402247 0 0 0
0.17501 0.291813 -0.930346 0 0 0
-0.930346 0.17501 0.291813 0 0 0
0.291813 -0.930346 0.17501 0 0 0
0.7443 -0.652429 -0.101402 0 0 0
-0.652429 -0.101402 0.7443 0 0 0
-0.101402 0.7443 -0.652429 0 0 0
0 0.749996 -0.647174 0 0 0
-0.647174 0 0.749996 0 0 0
0.749996 -0.647174 0 0 0 0
-0.205891 0.85674 -0.454493 0 0 0
0.151552 -0.474727 0.861789 0 0 0
-0.454493 -0.205891 0.85674 0 0 0
0.85674 -0.454493 -0.205891 0 0 0
-0.088502 -0.247124 0.959701 0 0 0
0.959701 -0.088502 -0.247124 0 0 0
-0.247124 0.959701 -0.088502 0 0 0
0.43163 0.581728 0.674494 0 0 0
0.533368 -0.615747 0.564834 0 0 0
-0.17501 0.291813 -0.930346 0 0 0
-0.930346 -0.17501 0.291813 0 0 0
0.291813 -0.930346 -0.17501 0 0 0
-0.291813 0.930346 -0.17501 0 0 0
0.930346 -0.17501 -0.291813 0 0 0
-0.17501 -0.291813 0.930346 0 0 0
-0.529495 0.402247 0.735386 0 0 0
0.402247 0.735386 -0.529495 0 0 0
-0.76949 -0.576183 -0.255489 0 0 0
-0.554313 0.811504 0.13817 0 0 0
0.811504 0.13817 -0.554313 0 0 0
-0.266762 0.150098 0.941256 0 0 0
0.941256 -0.266762 0.150098 0 0 0
0.150098 0.941256 -0.266762 0 0 0
-0.150098 -0.941256 0.266762 0 0 0
-0.941256 0.266762 -0.150098 0 0 0
0.088502 -0.247124 0.959701 0 0 0
0.959701 0.088502 -0.247124 0 0 0
-0.247124 0.959701 0.088502 0 0 0
0.298174 0 0.945387 0 0 0
0.830878 -0.476062 -0.256773 0 0 0
-0.13817 0.554313 -0.811504 0 0 0
-0.811504 -0.13817 0.554313 0 0 0
0.897031 0.252574 -0.348526 0 0 0
0.574985 -0.755336 -0.283172 0 0 0
-0.576183 -0.255489 -0.76949 0 0 0
0.151552 -0.474727 -0.861789 0 0 0
-0.474727 -0.861789 0.151552 0 0 0
0 0.458673 -0.884512 0 0 0
-0.884512 0 0.458673 0 0 0
1.39197e-09 0.983988 0.121355 0 0 0
-0.574985 -0.755336 0.283172 0 0 0
0.674494 0.43163 0.581728 0 0 0
-0.749996 -0.647174 0 0 0 0
0 -0.749996 -0.647174 0 0 0
-0.647174 0 -0.749996 0 0 0
0.454493 0.205891 0.85674 0 0 0
0.205891 0.85674 0.454493 0 0 0
0.85674 0.454493 0.205891 0 0 0
-0.574985 0.755336 -0.283172 0 0 0
0.356101 0.831672 0.413389 0 0 0
0.945387 -0.298174 5.01053e-10 0 0 0
5.01053e-10 0.945387 -0.298174 0 0 0
0.476062 0.256773 0.830878 0 0 0
0.830878 0.476062 0.256773 0 0 0
0.307272 0.491726 -0.808529 0 0 0
-0.151552 0.474727 -0.861789 0 0 0
-0.919676 0 0.381063 0 0 0
0 0.381063 -0.919676 0 0 0
0.861789 -0.151552 0.474727 0 0 0
-0.43163 -0.581728 -0.674494 0 0 0
0.298174 -5.70644e-10 -0.945387 0 0 0
0.151552 0.474727 -0.861789 0 0 0
0.989573 0 0 0 0 0
0.247124 -0.959701 -0.088502 0 0 0
-0.959701 -0.088502 0.247124 0 0 0
-0.088502 0.247124 -0.959701 0 0 0
-0.413389 0.356101 0.831672 0 0 0
0.356101 0.831672 -0.413389 0 0 0
0.626279 -0.768124 -0.0936643 0 0 0
0.945387 0.298174 4.45381e-10 0 0 0
0.121355 0 0.983988 0 0 0
0.983988 0.121355 0 0 0 0
0.861789 -0.151552 -0.474727 0 0 0
0.283172 -0.574985 -0.755336 0 0 0
-0.755336 0.283172 -0.574985 0 0 0
-0.454493 0.205891 0.85674 0 0 0
0.85674 -0.454493 0.205891 0 0 0
0.205891 0.85674 -0.454493 0 0 0
-0.402247 -0.735386 0.529495 0 0 0
0.474727 0.861789 -0.151552 0 0 0
-0.151552 0.474727 0.861789 0 0 0
-0.17501 -0.291813 -0.930346 0 0 0
-0.930346 -0.17501 -0.291813 0 0 0
-0.291813 -0.930346 -0.17501 0 0 0
-0.913921 0.380553 0.0509132 0 0 0
0 0.639707 -0.758728 0 0 0
-0.758728 0 0.639707 0 0 0
0.639707 -0.758728 0 0 0 0
0.581728 0.674494 0.43163 0 0 0
0.458673 -0.884512 0 0 0 0
0.0271889 0.529855 0.840519 0 0 0
0.626279 -0.768124 0.0936643 0 0 0
-0.768124 0.0936643 0.626279 0 0 0
0.0936643 0.626279 -0.768124 0 0 0
5.01053e-10 0.84849 -0.509626 0 0 0
0.84849 -0.509626 5.01053e-10 0 0 0
-0.283172 -0.574985 -0.755336 0 0 0
-0.755336 -0.283172 -0.574985 0 0 0
-0.574985 -0.755336 -0.283172 0 0 0
-0.861789 0.151552 -0.474727 0 0 0
0.7443 0.652429 -0.101402 0 0 0
0.652429 -0.101402 0.7443 0 0 0
-0.101402 0.7443 0.652429 0 0 0
0.0853937 0.416144 0.896898 0 0 0
0.896898 0.0853937 0.416144 0 0 0
0.416144 0.896898 0.0853937 0 0 0
-0.861789 -0.151552 -0.474727 0 0 0
0 -0.381063 0.919676 0 0 0
0.919676 0 -0.381063 0 0 0
-0.381063 0.919676 0 0 0 0
0.402247 -0.735386 0.529495 0 0 0
-6.81989e-10 -0.84849 -0.509626 0 0 0
-0.84849 0.509626 -4.45381e-10 0 0 0
-0.494786 -0.305795 0.800581 0 0 0
-0.121355 0 0.983988 0 0 0
0.655798 -0.707127 0.244601 0 0 0
-0.707127 0.244601 0.655798 0 0 0
0.244601 0.655798 -0.707127 0 0 0
-0.101402 -0.7443 0.652429 0 0 0
0.652429 -0.101402 -0.7443 0 0 0
-0.7443 0.652429 -0.101402 0 0 0
0.674494 -0.43163 0.581728 0 0 0
0.84849 0.509626 4.45381e-10 0 0 0
0.381063 0.919676 0 0 0 0
0 0.381063 0.919676 0 0 0
-0.808529 0.307272 -0.491725 0 0 0
-0.861789 -0.151552 0.474727 0 0 0
-0.256773 0.830878 0.476062 0 0 0
0.830878 0.476062 -0.256773 0 0 0
-0.416144 -0.896898 0.0853937 0 0 0
-0.896898 0.0853937 -0.416144 0 0 0
0.0853937 -0.416144 -0.896898 0 0 0
0.674494 -0.43163 -0.581728 0 0 0
-0.529855 -0.840519 -0.0271889 0 0 0
-0.840519 -0.0271889 -0.529855 0 0 0
-0.0271889 -0.529855 -0.840519 0 0 0
-0.808529 0.307272 0.491725 0 0 0
-6.81989e-10 -0.945387 -0.298174 0 0 0
-0.0853937 0.416144 -0.896898 0 0 0
-0.896898 -0.0853937 0.416144 0 0 0
0.416144 -0.896898 -0.0853937 0 0 0
0.811504 -0.13817 0.554313 0 0 0
0.381063 -0.919676 0 0 0 0
0.474727 -0.861789 0.151552 0 0 0
-0.291813 0.930346 0.17501 0 0 0
0.930346 0.17501 -0.291813 0 0 0
0.17501 -0.291813 0.930346 0 0 0
0.533368 0.615747 0.564834 0 0 0
0.768124 -0.0936643 0.626279 0 0 0
-0.17501 0.291813 0.930346 0 0 0
0.930346 -0.17501 0.291813 0 0 0
0.291813 0.930346 -0.17501 0 0 0
-0.983988 0.121355 -1.39197e-09 0 0 0
0.655798 -0.707127 -0.244601 0 0 0
-0.707127 -0.244601 0.655798 0 0 0
-0.244601 0.655798 -0.707127 0 0 0
-1.39197e-09 -0.983988 0.121355 0 0 0
-0.581728 0.674494 -0.43163 0 0 0
0.897031 -0.252574 -0.348526 0 0 0
0.768124 0.0936643 -0.626279 0 0 0
-0.626279 0.768124 0.0936643 0 0 0
-0.356101 0.831672 -0.413389 0 0 0
-0.088502 -0.247124 -0.959701 0 0 0
-0.959701 -0.088502 -0.247124 0 0 0
-0.247124 -0.959701 -0.088502 0 0 0
0 -0.381063 -0.919676 0 0 0
-0.919676 0 -0.381063 0 0 0
-0.381063 -0.919676 0 0 0 0
0.7443 -0.652429 0.101402 0 0 0
-0.652429 0.101402 0.7443 0 0 0
0.101402 0.7443 -0.652429 0 0 0
0.121355 -1.39197e-09 -0.983988 0 0 0
-0.416144 0.896898 0.0853937 0 0 0
0.896898 0.0853937 -0.416144 0 0 0
0.0853937 -0.416144 0.896898 0 0 0
0.491726 0.808529 -0.307272 0 0 0
-0.307272 0.491726 0.808529 0 0 0
0.564834 0.533368 -0.615747 0 0 0
0.247124 -0.959701 0.088502 0 0 0
-0.959701 0.088502 0.247124 0 0 0
0.088502 0.247124 -0.959701 0 0 0
0.941256 0.266762 -0.150098 0 0 0
-0.554313 0.811504 -0.13817 0 0 0
0.811504 -0.13817 -0.554313 0 0 0
-0.13817 -0.554313 0.811504 0 0 0
-0.897031 0.252574 0.348526 0 0 0
-0.84849 -0.509626 -5.01053e-10 0 0 0
-0.509626 -5.01053e-10 -0.84849 0 0 0
-0.768124 -0.0936643 0.626279 0 0 0
-0.0936643 0.626279 -0.768124 0 0 0
-0.205891 0.85674 0.454493 0 0 0
0.454493 -0.205891 0.85674 0 0 0
0.85674 0.454493 -0.205891 0 0 0
0.7443 0.652429 0.101402 0 0 0
0.652429 0.101402 0.7443 0 0 0
0.101402 0.7443 0.652429 0 0 0
0.491726 0.808529 0.307272 0 0 0
0.307272 0.491726 0.808529 0 0 0
-0.509626 0 0.84849 0 0 0
0.474727 -0.861789 -0.151552 0 0 0
0.581728 -0.674494 -0.43163 0 0 0
0.13817 -0.554313 0.811504 0 0 0
0.529495 0.402247 0.735386 0 0 0
0.735386 0.529495 0.402247 0 0 0
0.348526 0.897031 -0.252574 0 0 0
-0.252574 0.348526 0.897031 0 0 0
-0.615747 -0.564834 0.533368 0 0 0
0.348526 -0.897031 0.252574 0 0 0
0.252574 -0.348526 -0.897031 0 0 0
-0.348526 -0.897031 0.252574 0 0 0
-0.43163 0.581728 -0.674494 0 0 0
-0.674494 -0.43163 0.581728 0 0 0
-0.897031 0.252574 -0.348526 0 0 0
0.0936643 -0.626279 0.768124 0 0 0
-0.639707 -0.758728 0 0 0 0
-0.758728 0 -0.639707 0 0 0
0 -0.639707 -0.758728 0 0 0
-0.674494 -0.43163 -0.581728 0 0 0
0.655798 0.707127 -0.244601 0 0 0
0.707127 -0.244601 0.655798 0 0 0
-0.244601 0.655798 0.707127 0 0 0
-0.283172 -0.574985 0.755336 0 0 0
-0.150098 -0.941256 -0.266762 0 0 0
0.266762 -0.150098 -0.941256 0 0 0
-0.43163 0.581728 0.674494 0 0 0
-0.252574 -0.348526 -0.897031 0 0 0
-0.348526 -0.897031 -0.252574 0 0 0
0.735386 -0.529495 0.402247 0 0 0
-0.808529 -0.307272 -0.491725 0 0 0
0.101402 -0.7443 -0.652429 0 0 0
-0.652429 0.101402 -0.7443 0 0 0
-0.7443 -0.652429 0.101402 0 0 0
0 -0.84849 0.509626 0 0 0
-0.735386 -0.529495 -0.402247 0 0 0
-0.529495 -0.402247 -0.735386 0 0 0
-0.402247 -0.735386 -0.529495 0 0 0
-0.85674 -0.454493 -0.205891 0 0 0
-0.454493 -0.205891 -0.85674 0 0 0
-0.831672 -0.413389 0.356101 0 0 0
-0.413389 0.356101 -0.831672 0 0 0
0.529495 -0.402247 0.735386 0 0 0
-0.564834 0.533368 -0.615748 0 0 0
0.252574 -0.348526 0.897031 0 0 0
-0.348526 0.897031 0.252574 0 0 0
0.941256 0.266762 0.150098 0 0 0
0.13817 0.554313 -0.811504 0 0 0
-0.811504 0.13817 0.554313 0 0 0
0.554313 -0.811504 0.13817 0 0 0
-0.205891 -0.85674 -0.454493 0 0 0
0.655798 0.707127 0.244601 0 0 0
0.707127 0.244601 0.655798 0 0 0
0.244601 0.655798 0.707127 0 0 0
0.101402 -0.7443 0.652429 0 0 0
0.652429 0.101402 -0.7443 0 0 0
-0.7443 0.652429 0.101402 0 0 0
0.830878 -0.476062 0.256773 0 0 0
-0.0853937 0.416144 0.896898 0 0 0
0.896898 -0.0853937 0.416144 0 0 0
0.416144 0.896898 -0.0853937 0 0 0
0.768124 0.0936643 0.626279 0 0 0
0.413389 -0.356101 0.831672 0 0 0
0.348526 0.897031 0.252574 0 0 0
0.252574 0.348526 0.897031 0 0 0
-0.43163 -0.581728 0.674494 0 0 0
0.509626 0 0.84849 0 0 0
2.2968e-09 0.989573 0 0 0 0
-0.0936643 -0.626279 0.768124 0 0 0
0.768124 -0.0936643 -0.626279 0 0 0
-0.626279 0.768124 -0.0936643 0 0 0
-0.0936643 -0.626279 -0.768124 0 0 0
-0.768124 -0.0936643 -0.626279 0 0 0
-0.626279 -0.768124 -0.0936643 0 0 0
0 -0.945387 0.298174 0 0 0
-0.861789 0.151552 0.474727 0 0 0
-0.151552 -0.474727 0.861789 0 0 0
-0.474727 0.861789 -0.151552 0 0 0
0.755336 0.283172 0.574985 0 0 0
-0.101402 -0.7443 -0.652429 0 0 0
-0.652429 -0.101402 -0.7443 0 0 0
-0.7443 -0.652429 -0.101402 0 0 0
0.13817 0.554313 0.811504 0 0 0
0.554313 0.811504 0.13817 0 0 0
-0.307272 0.491726 -0.808529 0 0 0
-0.749996 0.647174 0 0 0 0
0.647174 0 -0.749996 0 0 0
0 -0.749996 0.647174 0 0 0
0.307272 -0.491726 -0.808529 0 0 0
-0.491726 -0.808529 0.307272 0 0 0
0.402247 0.735386 0.529495 0 0 0
-0.533368 0.615747 0.564834 0 0 0
-0.830878 0.476062 0.256773 0 0 0
0.491725 -0.808529 0.307272 0 0 0
-0.808529 -0.307272 0.491725 0 0 0
0.088502 -0.247124 -0.959701 0 0 0
-0.959701 0.088502 -0.247124 0 0 0
-0.247124 -0.959701 0.088502 0 0 0
0.509626 -5.70644e-10 -0.84849 0 0 0
0.626279 0.768124 0.0936643 0 0 0
0.0936643 0.626279 0.768124 0 0 0
0.256773 -0.830878 0.476062 0 0 0
-0.574985 0.755336 0.283172 0 0 0
0.755336 0.283172 -0.574985 0 0 0
0.491725 -0.808529 -0.307272 0 0 0
-0.735386 -0.529495 0.402247 0 0 0
-0.529495 0.402247 -0.735386 0 0 0
0.402247 -0.735386 -0.529495 0 0 0
-0.356101 -0.831672 0.413389 0 0 0
0.43163 -0.581728 -0.674494 0 0 0
-0.252574 -0.348526 0.897031 0 0 0
-0.348526 0.897031 -0.252574 0 0 0
0.17501 0.291813 0.930346 0 0 0
0.930346 0.17501 0.291813 0 0 0
0.291813 0.930346 0.17501 0 0 0
-0.356101 -0.831672 -0.413389 0 0 0
0.755336 -0.283172 -0.574985 0 0 0
0.564834 -0.533368 -0.615748 0 0 0
0.244601 -0.655798 -0.707127 0 0 0
-0.707127 0.244601 -0.655798 0 0 0
-0.655798 -0.707127 0.244601 0 0 0
-0.458673 0.884512 0 0 0 0
0.884512 0 -0.458673 0 0 0
-0.150098 0.941256 0.266762 0 0 0
0.266762 -0.150098 0.941256 0 0 0
