0 0.606673 0.783187 0 0.637481 0.770466
0.783187 0 0.606673 0 1 0
0.606673 0.783187 0 0 0 1
0.541127 0.445899 0.69521 0.211482 0.738131 -0.640654
0.580163 -0.655151 0.45883 -0.0127321 0.540515 0.841238
-0.0992153 0.545355 0.821084 -0.1305 0.556827 0.820313
0.821084 -0.0992153 0.545355 -0.277645 -0.942061 0.18824
0.545355 0.821084 -0.0992153 -0.18824 0.277645 0.942061
-0.445899 0.69521 0.541127 0.452949 -0.702901 -0.548422
0.69521 0.541127 -0.445899 0.640654 -0.211482 0.738131
-0.154083 0.875562 -0.429663 0.15448 -0.887366 0.434417
-0.429663 -0.154083 0.875562 -0.395946 -0.852136 -0.342185
0.875562 -0.429663 -0.154083 0.342185 0.395946 0.852136
-0.545355 -0.821084 -0.0992153 0.18824 -0.277645 0.942061
-0.69521 -0.541127 -0.445899 0.640654 -0.211482 -0.738131
0.4471 -0.787785 -0.393953 0.453418 -0.796191 -0.400614
-0.541127 -0.445899 -0.69521 0.211482 0.738131 -0.640654
-0.445899 -0.69521 -0.541127 -0.452949 -0.702902 -0.548422
-0.0992153 -0.545355 -0.821084 0.1305 0.556827 0.820313
-0.821084 -0.0992153 -0.545355 -0.277645 0.942061 0.18824
0.785704 -0.578517 0.153919 -0.425968 -0.360971 0.829609
-0.0895573 -0.148274 -0.97247 -0.00498799 0.988851 -0.148822
-0.97247 -0.0895573 -0.148274 0.092233 -0.995698 0.00885856
-0.148274 -0.97247 -0.0895573 0.00885861 0.0922334 -0.995698
0.787785 0.393953 -0.4471 0.187666 -0.87595 -0.444402
-0.30515 0.798894 -0.493744 0.309017 -0.809017 0.5
0.798894 -0.493744 -0.30515 0.5 0.309017 0.809017
-0.45883 -0.580163 -0.655151 0.309018 -0.809017 0.5
-0.655151 -0.45883 -0.580163 -0.499999 -0.309018 0.809017
-0.606673 0.783187 0 -2.22834e-07 -5.61837e-07 1
0.783187 0 -0.606673 5.61837e-07 -1 2.22834e-07
0 -0.606673 0.783187 0 -0.637481 0.770466
-0.266493 0.932768 -0.191584 -0.5 -0.309017 -0.809017
0.932768 -0.191584 -0.266493 -0.139964 0.558692 -0.81748
-0.191584 -0.266493 0.932768 -0.182633 -0.285879 0.940701
0.877343 -0.338604 0.302194 -0.182678 -0.872867 -0.452473
0.436693 0.854273 0.238965 0.389214 0.0617414 -0.919076
0.238965 0.436693 0.854273 -0.244557 -0.440458 -0.863822
0.309989 0.576483 0.741185 -0.309017 0.809017 -0.5
0.741185 0.309989 0.576483 0.418728 -0.903982 -0.0865033
-0.445899 -0.69521 0.541127 0.452949 0.702901 -0.548422
0.633866 0.298826 -0.696147 0.254404 0.781464 0.56973
-0.0263956 0.514366 0.848575 -0.0102302 0.522873 0.852349
0 0.863735 -0.479894 -5.28956e-11 -0.861839 0.507181
-0.479894 0 0.863735 0 -1 0
-0.493744 0.30515 0.798894 -0.309017 0.809017 -0.499999
0.863735 -0.479894 0 -5.36587e-09 -9.01379e-09 1
0.289005 0.945549 0 -3.16888e-07 -6.34023e-07 1
0.675658 -0.706585 -0.147688 0.5 0.309017 0.809017
-0.706585 -0.147688 0.675658 0.309017 0.809017 0.5
-0.147688 0.675658 -0.706585 0.151144 -0.685016 0.712677
-0.787785 -0.393953 -0.4471 -0.187666 0.87595 -0.444402
-0.798894 -0.493744 0.30515 0.5 -0.309017 0.809017
-0.493744 0.30515 -0.798894 0.309017 -0.809017 -0.5
0.302194 -0.877343 -0.338604 0.303711 -0.888715 -0.343431
-0.877343 -0.338604 0.302194 -0.420493 0.346638 -0.838467
0.675658 0.706585 -0.147688 0.5 -0.309017 0.809017
0.706585 -0.147688 0.675658 -0.309017 0.809017 0.5
-0.147688 0.675658 0.706585 -0.151144 0.685016 0.712677
-0.578517 0.153919 0.785704 -0.360971 0.829609 -0.425968
0.153919 0.785704 -0.578517 -0.15507 -0.796849 0.583939
0.69521 -0.541127 0.445899 0.640654 0.211482 -0.738131
-0.429663 0.154083 0.875562 -0.395946 0.852136 -0.342185
0.875562 -0.429663 0.154083 -0.342185 -0.395946 0.852136
0.154083 0.875562 -0.429663 -0.15448 -0.887366 0.434417
0 0.606673 -0.783187 -2.90824e-07 -0.637481 0.770466
-0.783187 0 0.606673 -5.61837e-07 -1 -2.22834e-07
0.606673 -0.783187 0 0 0 1
0.787785 -0.393953 -0.4471 0.187666 0.87595 -0.444402
0.45883 0.580163 0.655151 0.309018 -0.809017 0.499999
1.49012e-09 -0.289005 0.945549 1.38275e-07 0.957234 0.289314
0.514366 0.848575 0.0263956 -0.268506 0.1533 0.951001
-0.121333 -0.938723 -0.283572 -0.143995 -0.950833 -0.274192
-0.938723 -0.283572 -0.121333 -0.0206013 0.519914 -0.85397
-0.283572 -0.121333 -0.938723 0.274192 0.143995 0.950833
0.180353 0 0.970791 3.87358e-08 1 -3.96954e-07
0.970791 0.180353 0 -3.96954e-07 3.87358e-08 1
0.238965 0.436693 -0.854273 0.244557 0.440459 -0.863822
-0.238965 -0.436693 0.854273 0.244557 0.440458 -0.863822
-0.436693 0.854273 -0.238965 -0.389214 0.0617414 0.919076
0.238965 -0.436693 -0.854273 0.244557 -0.440458 -0.863822
-0.436693 -0.854273 0.238965 -0.389214 -0.0617414 -0.919076
0.741185 -0.309989 0.576483 -0.499999 0.309017 0.809017
0.4471 0.787785 0.393953 -0.453418 -0.796191 -0.400614
-0.798894 -0.493744 -0.30515 -0.5 0.309017 0.809017
-0.338604 0.302194 -0.877343 0.346638 -0.838467 -0.420493
-0.30515 -0.798894 0.493744 -0.309017 -0.809017 0.5
-0.578517 -0.153919 -0.785704 0.360971 0.829609 -0.425968
-0.785704 -0.578517 -0.153919 -0.425968 0.360971 0.829609
0.580163 0.655151 0.45883 -0.0127322 -0.540515 0.841238
-0.854273 0.238965 0.436693 0.0617417 0.919076 -0.389214
0.266493 -0.932768 0.191584 -0.5 -0.309018 -0.809017
-0.514366 0.848575 0.0263956 0.268506 0.1533 0.951001
0.848575 0.0263956 -0.514366 0.1533 0.951001 0.268506
0.0263956 -0.514366 0.848575 0.0102302 -0.522873 0.852349
0.266493 -0.932768 -0.191584 0.5 0.309017 -0.809017
0.289005 -0.945549 0 3.16888e-07 -6.34023e-07 1
0.578517 0.153919 -0.785704 -0.360971 -0.829609 -0.425968
-0.238965 0.436693 -0.854273 -0.244557 0.440458 -0.863822
0.4471 0.787785 -0.393953 0.453418 0.796191 -0.400614
-0.393953 0.4471 0.787785 -0.268737 0.772605 -0.575205
-1.24437e-09 -0.935201 -0.318558 -1.94796e-10 0.937457 0.348102
-0.45883 0.580163 -0.655151 0.309018 0.809017 0.499999
-0.655151 -0.45883 0.580163 0.499999 0.309018 0.809017
-0.309989 0.576483 0.741185 0.309017 0.809017 -0.5
0.576483 0.741185 -0.309989 -0.0865027 0.418728 0.903983
-0.0992153 0.545355 -0.821084 0.1305 -0.556827 0.820313
-0.821084 -0.0992153 0.545355 0.277645 -0.942061 0.18824
0.545355 -0.821084 -0.0992153 -0.18824 -0.277645 0.942061
0.655151 -0.45883 0.580163 -0.499999 0.309019 0.809017
-0.935201 -0.318558 -1.13581e-09 -8.84445e-09 2.3997e-08 1
-0.318558 -1.13581e-09 -0.935201 -2.3997e-08 -1 8.84445e-09
0.675658 0.706585 0.147688 -0.5 0.309017 0.809017
0.706585 0.147688 0.675658 -0.309017 -0.809017 0.5
0.147688 0.675658 0.706585 0.151144 0.685016 0.712677
-0.338604 -0.302194 0.877343 -0.346638 -0.838468 -0.420493
-0.302194 0.877343 -0.338604 -0.303711 0.888715 -0.343431
0.541127 -0.445899 0.69521 0.211482 -0.738131 -0.640654
0.785704 0.578517 -0.153919 0.425968 -0.360971 0.829609
-0.153919 0.785704 0.578517 -0.155069 0.796849 0.583939
-0.298826 -0.696147 -0.633866 0.304776 0.704325 0.641122
-0.633866 -0.298826 -0.696147 -0.254404 -0.781464 0.56973
-0.696147 -0.633866 -0.298826 -0.56973 0.254404 0.781464
-0.191584 -0.266493 -0.932768 -0.558692 0.81748 -0.139964
-0.932768 -0.191584 -0.266493 0.139964 0.558692 -0.81748
-0.266493 -0.932768 -0.191584 -0.499999 0.309017 -0.809017
-0.338604 -0.302194 -0.877343 0.346638 0.838468 -0.420493
-0.121333 0.938723 -0.283572 -0.5 -0.309017 -0.809017
0.938723 -0.283572 -0.121333 0.0206012 0.519914 -0.85397
0.147688 -0.675658 0.706585 0.151144 -0.685016 0.712677
0.706585 0.147688 -0.675658 0.309017 0.809017 0.5
-0.675658 0.706585 0.147688 0.5 0.309017 0.809017
0.121333 -0.938723 0.283572 -0.143995 0.950833 -0.274192
0 -0.863735 -0.479894 1.93994e-07 0.861839 0.507181
0.30515 0.798894 0.493744 0.309017 0.809017 0.5
0.318558 -1.17757e-09 -0.935201 2.38993e-08 -1 8.75375e-09
-0.283572 0.121333 -0.938723 0.519914 0.85397 -0.0206012
-0.938723 -0.283572 0.121333 0.0206012 -0.519914 -0.85397
0.121333 -0.938723 -0.283572 0.5 0.309017 -0.809017
0.180353 -8.3518e-10 -0.970791 -3.87979e-08 1 -3.965e-07
0.393953 0.4471 -0.787785 -0.268737 -0.772605 -0.575205
0.283572 0.121333 0.938723 0.274192 0.143995 0.950833
0.938723 0.283572 0.121333 -0.0206014 0.519914 -0.85397
0.121333 0.938723 0.283572 0.5 -0.309017 0.809017
0.787785 0.393953 0.4471 -0.187667 0.87595 -0.444402
0.493744 0.30515 0.798894 0.309017 0.809017 -0.5
0.798894 0.493744 0.30515 -0.5 0.309017 0.809017
0.854273 -0.238965 0.436693 -0.5 -0.309017 0.809017
-0.970791 0.180353 -8.3518e-10 -3.965e-07 -3.8798e-08 1
-8.3518e-10 -0.970791 0.180353 -1.11272e-07 -0.184464 -0.982839
-0.121333 0.938723 0.283572 0.143995 -0.950833 -0.274192
0.938723 0.283572 -0.121333 0.0206012 -0.519913 -0.853971
0.283572 -0.121333 0.938723 0.274192 -0.143995 0.950833
-0.787785 -0.393953 0.4471 0.187666 -0.87595 -0.444402
-0.970791 -0.180353 -8.3518e-10 3.97408e-07 -3.86738e-08 1
-0.180353 -8.3518e-10 -0.970791 -3.86738e-08 1 3.97408e-07
0.493744 -0.30515 -0.798894 -0.309017 0.809017 -0.5
-0.798894 0.493744 -0.30515 -0.5 -0.309017 0.809017
0.945549 0 -0.289005 -6.34023e-07 -1 3.16888e-07
-0.289005 0.945549 0 -3.16888e-07 6.34023e-07 1
0.153919 -0.785704 0.578517 0.15507 -0.796849 0.583939
-0.785704 0.578517 0.153919 0.425968 0.360971 0.829609
0.785704 -0.578517 -0.153919 0.425968 0.360971 0.829609
0.987487 0 0 0 0 1
-0.393953 0.4471 -0.787785 0.268737 -0.772605 -0.575205
-0.854273 -0.238965 -0.436693 0.0617413 -0.919076 0.389214
0.436693 -0.854273 -0.238965 0.389214 -0.0617414 0.919076
0.147688 -0.675658 -0.706585 -0.151144 0.685016 0.712677
-0.706585 0.147688 -0.675658 -0.309017 0.809017 0.5
-0.675658 -0.706585 0.147688 0.5 -0.309017 0.809017
-0.493744 -0.30515 0.798894 -0.309017 -0.809017 -0.5
-0.147688 -0.675658 -0.706585 0.151145 0.685016 0.712677
-0.706585 -0.147688 -0.675658 -0.309017 -0.809017 0.5
-0.675658 -0.706585 -0.147688 -0.5 0.309017 0.809017
0.445899 -0.69521 0.541127 -0.452949 0.702901 -0.548422
0.580163 0.655151 -0.45883 0.0127312 0.540516 0.841238
0.938723 -0.283572 0.121333 -0.0206012 -0.519914 -0.85397
0.121333 0.938723 -0.283572 0.143995 0.950833 -0.274192
0.798894 -0.493744 0.30515 -0.5 -0.309017 0.809017
0.580163 -0.655151 -0.45883 0.0127316 -0.540515 0.841238
-0.302194 0.877343 0.338604 0.303711 -0.888715 -0.343431
-0.945549 0 0.289005 -6.34023e-07 1 3.16888e-07
0 0.289005 -0.945549 1.19904e-07 -0.957234 -0.289314
0.877343 0.338604 -0.302194 0.420493 -0.346638 0.838467
0.191584 0.266493 -0.932768 -0.182633 -0.285879 0.940701
-0.932768 0.191584 0.266493 -0.139964 0.558692 -0.81748
0 0.768066 -0.622779 0 -0.645195 -0.764018
-0.622779 0 0.768066 0 -1 0
0.768066 -0.622779 0 0 0 1
0.238965 -0.436693 0.854273 -0.244557 0.440458 -0.863822
-0.436693 0.854273 0.238965 -0.389214 0.0617414 -0.919076
-0.545355 -0.821084 0.0992153 -0.18824 0.277645 0.942061
-0.821084 0.0992153 -0.545355 -0.277645 -0.942061 0.18824
0.0992153 -0.545355 -0.821084 -0.1305 0.556827 0.820313
-0.580163 -0.655151 0.45883 0.0127317 0.540515 0.841238
0.0312744 -0.915872 0.369161 0.00806923 -0.932469 0.361159
-0.393953 -0.4471 0.787785 -0.268737 -0.772605 -0.575206
-0.4471 0.787785 -0.393953 -0.453418 0.796191 -0.400614
-0.580163 0.655151 0.45883 0.0127321 -0.540515 0.841238
0.655151 0.45883 -0.580163 0.5 0.309018 0.809017
-0.633866 0.298826 0.696147 0.254404 -0.781464 0.56973
0.298826 0.696147 -0.633866 -0.304776 -0.704325 0.641122
-0.655151 0.45883 0.580163 0.499999 -0.309019 0.809017
-0.45883 0.580163 0.655151 -0.309018 -0.809017 0.499999
0.445899 -0.69521 -0.541127 0.452949 -0.702902 -0.548422
-0.69521 -0.541127 0.445899 0.640654 -0.211482 0.738131
-0.541127 0.445899 -0.69521 0.211482 -0.738131 -0.640654
0.655151 0.45883 0.580163 0.540516 -0.841237 0.0127309
-0.875562 -0.429663 0.154083 0.342185 -0.395946 0.852136
-0.429663 0.154083 -0.875562 0.395946 -0.852136 -0.342185
0.154083 -0.875562 -0.429663 -0.15448 0.887366 0.434417
0.479894 0 -0.863735 5.72301e-07 1 5.61731e-07
-0.0613184 0.446139 0.882403 -0.080653 0.426328 0.900966
0.882403 -0.0613184 0.446139 0.30458 -0.582226 -0.753819
0.446139 0.882403 -0.0613184 0.5 -0.309017 -0.809017
-0.369161 0.0312744 0.915872 0.463742 -0.865987 0.187108
-0.309989 -0.576483 -0.741185 -0.309017 0.809017 -0.5
-0.741185 -0.309989 -0.576483 -0.5 -0.309016 0.809017
-0.576483 -0.741185 -0.309989 0.0865021 -0.418728 0.903983
-0.154083 0.875562 0.429663 -0.15448 0.887365 0.434417
0.429663 -0.154083 0.875562 0.395946 -0.852136 -0.342186
0.875562 0.429663 -0.154083 -0.309017 0.809017 0.5
-0.302194 -0.877343 -0.338604 -0.303711 -0.888715 -0.343431
-0.541127 0.445899 0.69521 -0.211482 0.738131 -0.640654
0.445899 0.69521 -0.541127 0.452949 0.702902 -0.548422
-0.854273 0.238965 -0.436693 0.0617413 0.919076 0.389214
-0.309989 0.576483 -0.741185 -0.309016 -0.809017 -0.5
-0.741185 -0.309989 0.576483 0.5 0.309016 0.809017
0.576483 -0.741185 -0.309989 -0.0865035 -0.418728 0.903982
-0.266493 0.932768 0.191584 0.499999 0.309017 -0.809017
0.932768 0.191584 -0.266493 -0.139965 -0.558691 -0.81748
0.191584 -0.266493 0.932768 0.182633 -0.285879 0.940701
-0.393953 -0.4471 -0.787785 0.268737 0.772605 -0.575206
-0.4471 -0.787785 -0.393953 -0.453418 -0.796191 -0.400614
0.298826 -0.696147 0.633866 0.304776 -0.704326 0.641122
-0.787785 0.393953 0.4471 0.187666 0.87595 -0.444402
-0.514366 -0.848575 0.0263956 0.268506 -0.1533 0.951001
-0.848575 0.0263956 -0.514366 -0.1533 0.951001 0.268506
0.309989 0.576483 -0.741185 0.309017 -0.809017 -0.5
-0.741185 0.309989 0.576483 0.499999 -0.309017 0.809017
0.576483 -0.741185 0.309989 0.086503 0.418728 0.903982
-0.580163 -0.655151 -0.45883 -0.0127309 -0.540516 0.841237
0.576483 0.741185 0.309989 0.0865021 -0.418728 0.903983
0.436693 -0.854273 0.238965 -0.389214 0.0617414 0.919076
0.945549 0 0.289005 6.34023e-07 -1 3.16888e-07
0.338604 0.302194 -0.877343 -0.346638 -0.838468 -0.420493
-0.854273 -0.238965 0.436693 -0.0617413 0.919076 0.389214
-8.3518e-10 -0.970791 -0.180353 -1.11317e-07 0.184464 -0.982839
0.877343 0.338604 0.302194 -0.182678 0.872867 -0.452472
-0.875562 -0.429663 -0.154083 -0.342185 0.395946 0.852136
-0.429663 -0.154083 -0.875562 0.395946 0.852136 -0.342185
-0.154083 -0.875562 -0.429663 0.15448 0.887365 0.434417
0.696147 0.633866 -0.298826 0.56973 -0.254404 0.781465
-0.298826 0.696147 0.633866 -0.304776 0.704326 0.641122
0.309989 -0.576483 0.741185 -0.309017 -0.809017 -0.5
-0.576483 -0.741185 0.309989 -0.0865021 0.418728 0.903983
0.445899 0.69521 0.541127 -0.452949 -0.702901 -0.548422
-0.696147 0.633866 0.298826 0.56973 0.254404 0.781464
0.696147 -0.633866 0.298826 -0.56973 -0.254404 0.781464
-0.153919 -0.785704 0.578517 -0.15507 -0.796849 0.583939
0.578517 -0.153919 -0.785704 -0.360971 0.829609 -0.425968
-0.785704 0.578517 -0.153919 -0.425968 -0.360971 0.829609
-0.545355 0.821084 0.0992153 -0.18824 -0.277645 0.942061
0.821084 0.0992153 -0.545355 0.277645 -0.942061 0.18824
0.0992153 -0.545355 0.821084 0.1305 -0.556827 0.820313
-0.863735 -0.479894 0 -5.36587e-09 9.01379e-09 1
-0.479894 0 -0.863735 -9.01379e-09 -1 5.36587e-09
0.546712 0.597315 0.56604 -0.5 -0.309017 0.809017
1.13581e-09 0.935201 -0.318558 6.21262e-11 -0.937457 0.348102
-0.4471 0.787785 0.393953 0.453418 -0.796191 -0.400614
0.45883 0.580163 -0.655151 -0.309018 0.809017 0.499999
-0.191584 0.266493 -0.932768 0.182633 -0.285879 0.940701
-0.932768 -0.191584 0.266493 -0.139964 -0.558692 -0.81748
0.429663 0.154083 -0.875562 -0.395946 -0.852136 -0.342186
-0.875562 0.429663 0.154083 0.342185 0.395946 0.852136
0.154083 -0.875562 0.429663 0.15448 -0.887366 0.434417
0.302194 -0.877343 0.338604 -0.303711 0.888715 -0.343431
-0.877343 0.338604 0.302194 0.420493 0.346638 0.838467
0.0263956 0.514366 -0.848575 -0.0102304 -0.522873 0.852349
-0.848575 0.0263956 0.514366 0.1533 -0.951001 0.268506
-0.30515 0.798894 0.493744 -0.309017 0.809017 0.5
0.493744 -0.30515 0.798894 0.309017 -0.809017 -0.499999
0.798894 0.493744 -0.30515 0.499999 -0.309017 0.809017
0 0.768066 0.622779 0 0.645195 -0.764018
0.622779 0 0.768066 0 1 0
0.768066 0.622779 0 0 0 1
-0.877343 0.338604 -0.302194 0.420493 0.346638 -0.838467
0.541127 0.445899 -0.69521 -0.211482 -0.738131 -0.640654
-0.69521 0.541127 0.445899 -0.640654 -0.211482 -0.738131
0.785704 0.578517 0.153919 -0.425968 0.360971 0.829609
0.578517 0.153919 0.785704 0.360971 0.829609 -0.425968
0.153919 0.785704 0.578517 0.15507 0.796849 0.583939
-0.446139 0.882403 -0.0613184 -0.5 -0.309017 -0.809017
0.882403 -0.0613184 -0.446139 -0.30458 0.582226 -0.75382
-0.0613184 -0.446139 0.882403 -0.080653 -0.426328 0.900966
-0.606673 -0.783187 0 0 0 1
-0.783187 0 -0.606673 0 1 0
0 -0.606673 -0.783187 0 0.637481 0.770466
0.633866 -0.298826 0.696147 -0.254404 0.781464 0.56973
0.854273 0.238965 0.436693 0.0617414 -0.919076 0.389214
0.854273 0.238965 -0.436693 0.0617414 -0.919076 -0.389214
-0.580163 0.655151 -0.45883 -0.0127312 0.540516 0.841238
-0.576483 0.741185 -0.309989 0.0865021 0.418728 0.903983
-0.97247 -0.0895573 0.148274 -0.092233 0.995698 0.00885856
-0.0895573 0.148274 -0.97247 -0.00498798 -0.988851 -0.148822
0.393953 0.4471 0.787785 0.268737 0.772605 -0.575206
1.37808e-09 0.987487 0 0 0 1
0.514366 -0.848575 -0.0263956 0.268506 0.1533 0.951001
0.191584 0.266493 0.932768 0.182633 0.285879 0.940701
0.266493 0.932768 0.191584 -0.5 0.309017 -0.809017
-0.121333 -0.938723 0.283572 0.143995 0.950833 -0.274192
0.283572 0.121333 -0.938723 0.519913 -0.853971 0.0206014
-0.597315 0.56604 -0.546712 0.309017 0.809017 0.5
-0.283572 -0.121333 0.938723 0.519914 -0.85397 0.0206015
0.298826 -0.696147 -0.633866 -0.304776 0.704325 0.641122
-0.633866 0.298826 -0.696147 -0.254404 0.781464 0.56973
-0.696147 -0.633866 0.298826 0.56973 -0.254404 0.781464
0.56604 -0.546712 0.597315 -0.115639 0.650849 0.750349
-0.877343 -0.338604 -0.302194 -0.420493 0.346638 0.838467
0.283572 -0.121333 -0.938723 -0.274192 0.143995 0.950833
0.148274 -0.97247 -0.0895573 -0.00885861 0.0922334 -0.995698
0.877343 -0.338604 -0.302194 0.420494 0.346638 0.838467
0.0992153 0.545355 -0.821084 -0.1305 -0.556827 0.820313
-0.821084 0.0992153 0.545355 0.277645 0.942061 0.18824
0.545355 -0.821084 0.0992153 0.18824 0.277645 0.942061
-0.541127 -0.445899 0.69521 -0.211482 -0.738131 -0.640654
0.393953 -0.4471 -0.787785 -0.268737 0.772605 -0.575206
0.493744 0.30515 -0.798894 -0.309017 -0.809017 -0.5
0.148274 0.97247 0.0895573 0.00885861 0.0922334 -0.995698
0.97247 0.0895573 0.148274 0.0922334 -0.995698 0.00885861
0.0895573 0.148274 0.97247 -0.00498797 0.988851 -0.148822
0.69521 -0.541127 -0.445899 0.640654 0.211482 0.738131
-0.97247 0.0895573 -0.148274 0.092233 0.995698 0.00885856
-0.148274 -0.97247 0.0895573 -0.00885856 -0.092233 -0.995698
-0.191584 0.266493 0.932768 -0.182633 0.285879 0.940701
0.266493 0.932768 -0.191584 0.5 -0.309018 -0.809017
-0.493744 -0.30515 -0.798894 0.309017 0.809017 -0.499999
0.302194 0.877343 0.338604 -0.303711 -0.888715 -0.343431
0.338604 0.302194 0.877343 0.346638 0.838468 -0.420493
-0.238965 -0.436693 -0.854273 -0.244557 -0.440458 -0.863822
-0.436693 -0.854273 -0.238965 0.389214 0.0617414 -0.919076
0.675658 -0.706585 0.147688 -0.5 -0.309017 0.809017
-0.706585 0.147688 0.675658 0.309017 -0.809017 0.5
0.147688 0.675658 -0.706585 -0.151145 -0.685016 0.712677
0.4471 -0.787785 0.393953 -0.453418 0.796191 -0.400614
0.191584 -0.266493 -0.932768 -0.182633 0.285879 0.940701
-0.932768 0.191584 -0.266493 0.139964 -0.558692 -0.81748
-0.266493 -0.932768 0.191584 0.5 -0.309017 -0.809017
-0.69521 0.541127 -0.445899 0.640654 0.211482 -0.738131
0.541127 -0.445899 -0.69521 -0.211482 0.738131 -0.640654
0 0.863735 0.479894 1.93862e-07 -0.861839 -0.507181
0.479894 0 0.863735 -5.82567e-07 1 5.67842e-07
0.863735 0.479894 0 5.63073e-07 -5.74554e-07 1
-0.798894 0.493744 0.30515 0.5 0.309017 0.809017
-0.56604 -0.546712 -0.597315 -0.115639 -0.650849 0.750349
-0.578517 -0.153919 0.785704 -0.360971 -0.829609 -0.425968
-0.153919 0.785704 -0.578517 0.15507 -0.796849 0.583939
0.30515 -0.798894 -0.493744 -0.309017 0.809017 0.5
1.49012e-09 0.289005 0.945549 1.01532e-07 0.957234 -0.289314
-0.545355 0.821084 -0.0992153 0.18824 0.277645 0.942061
0.821084 -0.0992153 -0.545355 0.277645 0.942061 0.18824
-0.0992153 -0.545355 0.821084 -0.1305 -0.556827 0.820313
0.56604 0.546712 -0.597314 0.11564 0.650849 0.750349
-0.147688 -0.675658 0.706585 -0.151144 -0.685016 0.712677
0.706585 -0.147688 -0.675658 0.309017 -0.809017 0.5
-0.675658 0.706585 -0.147688 -0.5 -0.309017 0.809017
-0.446139 -0.882403 0.0613184 0.5 -0.309017 -0.809017
-0.882403 0.0613184 -0.446139 0.30458 -0.582226 -0.75382
0.0613184 -0.446139 -0.882403 -0.080653 0.426328 0.900966
0.30515 -0.798894 0.493744 0.309017 -0.809017 0.5
0.854273 -0.238965 -0.436693 -0.0617413 -0.919076 0.389214
0.0895573 -0.148274 0.97247 -0.00498797 -0.988851 -0.148822
0.97247 0.0895573 -0.148274 -0.0922334 0.995698 0.00885861
-0.148274 0.97247 0.0895573 -0.00885861 0.0922334 -0.995698
0.69521 0.541127 0.445899 -0.640654 0.211482 0.738131
0.0992153 0.545355 0.821084 0.1305 0.556827 0.820313
0.821084 0.0992153 0.545355 -0.277645 0.942061 0.18824
0.545355 0.821084 0.0992153 0.18824 -0.277645 0.942061
-0.863735 0.479894 0 -4.76967e-09 -8.01226e-09 1
0 -0.863735 0.479894 0 -0.507181 -0.861839
0.436693 0.854273 -0.238965 -0.389214 -0.0617414 -0.919076
-0.238965 0.436693 0.854273 0.244557 -0.440458 -0.863822
-0.153919 -0.785704 -0.578517 0.155069 0.796849 0.583939
3.64839e-09 0 0.987487 0 1 0
0.148274 0.97247 -0.0895573 -0.00885856 -0.092233 -0.995698
0.97247 -0.0895573 0.148274 0.092233 0.995698 0.00885856
-0.0895573 0.148274 0.97247 0.00498799 0.988851 -0.148822
-0.0263956 -0.514366 -0.848575 0.0102302 0.522873 0.852349
0.309989 -0.576483 -0.741185 0.309016 0.809017 -0.5
-0.741185 0.309989 -0.576483 0.5 -0.309016 -0.809017
0.429663 0.154083 0.875562 0.395946 0.852136 -0.342186
0.154083 0.875562 0.429663 0.15448 0.887366 0.434417
0.875562 0.429663 0.154083 -0.342186 0.395946 0.852136
0.153919 -0.785704 -0.578517 -0.155069 0.796849 0.583939
-0.578517 0.153919 -0.785704 0.360971 -0.829609 -0.425968
-0.785704 -0.578517 0.153919 0.425968 -0.360971 0.829609
0.0613184 0.446139 0.882403 0.080653 0.426328 0.900966
0.882403 0.0613184 0.446139 -0.30458 -0.582226 0.753819
0.446139 0.882403 0.0613184 -0.5 0.309017 -0.809017
0.741185 -0.309989 -0.576483 -0.5 0.309016 -0.809017
-0.309989 -0.576483 0.741185 0.309017 -0.809017 -0.5
-0.4471 -0.787785 0.393953 0.453418 0.796191 -0.400614
0.696147 0.633866 0.298826 -0.56973 0.254404 0.781464
0.633866 0.298826 0.696147 -0.254404 -0.781464 0.56973
0.298826 0.696147 0.633866 0.304776 0.704326 0.641122
-0.0613184 0.446139 -0.882403 0.080653 -0.426328 0.900966
-0.882403 -0.0613184 0.446139 0.30458 0.582226 0.75382
0.935201 0.318558 2.67228e-10 5.8054e-10 -6.2524e-10 1
0.446139 -0.882403 -0.0613184 0.500001 0.309017 -0.809017
-0.45883 -0.580163 0.655151 -0.309018 0.809017 0.499999
0.45883 -0.580163 0.655151 0.309018 0.809017 0.499999
0.30515 0.798894 -0.493744 -0.309017 -0.809017 0.5
-0.787785 0.393953 -0.4471 -0.187666 -0.87595 -0.444402
-0.446139 -0.882403 -0.0613184 -0.5 0.309017 -0.809017
0.148274 -0.97247 0.0895573 0.00885856 -0.092233 -0.995698
-0.97247 0.0895573 0.148274 -0.092233 -0.995698 0.00885856
0.0895573 0.148274 -0.97247 0.00498797 -0.988851 -0.148822
-0.0613184 -0.446139 -0.882403 0.080653 0.426328 0.900966
-0.882403 -0.0613184 -0.446139 -0.30458 -0.582226 0.75382
-0.546712 0.597315 0.56604 0.499999 -0.309018 0.809017
0.302194 0.877343 -0.338604 0.303711 0.888715 -0.343431
-0.338604 0.302194 0.877343 -0.346638 0.838467 -0.420493
0.848575 0.0263956 0.514366 -0.1533 -0.951001 0.268506
0.578517 -0.153919 0.785704 0.360971 -0.829609 -0.425968
-0.445899 0.69521 -0.541127 -0.452949 0.702902 -0.548422
8.3518e-10 0.970791 -0.180353 1.11318e-07 -0.184464 -0.982839
0.393953 -0.4471 0.787785 0.268737 -0.772605 -0.575205
-0.283572 0.121333 0.938723 -0.519914 -0.85397 -0.0206015
-0.30515 -0.798894 -0.493744 0.309017 0.809017 0.5
0.0895573 -0.148274 -0.97247 0.00498797 0.988851 -0.148822
-0.180353 0 0.970791 -3.87359e-08 -1 -3.96954e-07
0.970791 -0.180353 0 3.96954e-07 3.87359e-08 1
0.338604 -0.302194 0.877343 0.346638 -0.838468 -0.420493
0.932768 -0.191584 0.266493 0.139964 -0.558692 -0.81748
-0.446139 0.882403 0.0613184 0.500001 0.309017 -0.809016
0.882403 0.0613184 -0.446139 0.30458 0.582226 0.753819
-0.298826 -0.696147 0.633866 -0.304776 -0.704326 0.641122
0.633866 -0.298826 -0.696147 0.254404 -0.781464 0.56973
-0.696147 0.633866 -0.298826 -0.56973 -0.254404 0.781464
0.0613184 -0.446139 0.882403 0.080653 -0.426328 0.900966
0.787785 -0.393953 0.4471 -0.187666 -0.87595 -0.444402
-0.768066 0.622779 0 0 0 1
0.622779 0 -0.768066 0 -1 0
0 -0.768066 0.622779 0 -0.645195 -0.764018
-0.875562 0.429663 -0.154083 -0.342185 -0.395946 0.852136
-0.154083 -0.875562 0.429663 -0.15448 -0.887366 0.434417
0.429663 -0.154083 -0.875562 -0.395946 0.852136 -0.342186
-0.655151 0.45883 -0.580163 -0.499999 0.309018 0.809017
0.45883 -0.580163 -0.655151 -0.309018 -0.809017 0.499999
-0.597315 -0.56604 0.546712 -0.309017 0.809017 0.5
0.546712 -0.597315 -0.56604 0.5 -0.309017 0.809017
0 -0.289005 -0.945549 -1.19904e-07 0.957234 -0.289314
-0.945549 0 -0.289005 6.34023e-07 1 3.16888e-07
-0.289005 -0.945549 0 3.16888e-07 6.34023e-07 1
0.338604 -0.302194 -0.877343 -0.346638 0.838468 -0.420493
-0.302194 -0.877343 0.338604 0.303711 0.888715 -0.343431
0.932768 0.191584 0.266493 0.139964 0.558692 -0.81748
0.655151 -0.45883 -0.580163 0.5 -0.309018 0.809017
-0.938723 0.283572 0.121333 0.0206016 0.519914 -0.85397
-0.633866 -0.298826 0.696147 0.254404 0.781464 0.56973
-0.298826 0.696147 -0.633866 0.304776 -0.704325 0.641122
0.696147 -0.633866 -0.298826 0.56973 0.254404 0.781465
0.935201 -0.318558 3.00632e-10 6.53108e-10 7.03394e-10 1
-0.915872 0.369161 -0.0312744 0.187108 0.463742 -0.865987
-0.576483 0.741185 0.309989 -0.086503 -0.418728 0.903982
0.741185 0.309989 -0.576483 -0.5 -0.309017 -0.809017
-0.938723 0.283572 -0.121333 -0.0206017 -0.519914 -0.85397
-0.768066 -0.622779 0 0 0 1
0 -0.768066 -0.622779 0 0.645195 -0.764018
-0.622779 0 -0.768066 0 1 0
0.369161 -0.0312744 0.915872 -0.463741 0.865988 0.187108
-0.0312744 0.915872 0.369161 -0.00806944 0.932469 0.361159
8.3518e-10 0.970791 0.180353 1.11272e-07 0.184464 -0.982839
-1.37808e-09 -0.987487 0 0 0 1
0 -1.37808e-09 -0.987487 0 -7.58723e-10 1
-0.987487 0 -1.37808e-09 0 -1 0
-0.0895573 -0.148274 0.97247 0.00498799 -0.988851 -0.148822
0.97247 -0.0895573 -0.148274 -0.092233 -0.995698 0.00885856
-0.148274 0.97247 -0.0895573 0.00885856 -0.092233 -0.995698
0.0613184 0.446139 -0.882403 -0.0806531 -0.426328 0.900966
-0.882403 0.0613184 0.446139 -0.30458 0.582226 -0.753819
0.446139 -0.882403 0.0613184 -0.500001 -0.309017 -0.809017
