0.133982 -0.766011 -0.60255 -0.133057 0.776122 0.616385
-0.60255 0.133982 -0.766011 -0.616385 0.133057 -0.776122
-0.766011 -0.60255 0.133982 0.776122 0.616385 -0.133057
-0.928809 0.261483 0.188201 -0.94296 0.265045 0.201438
0.188201 -0.928809 0.261483 0.201437 -0.94296 0.265045
0.654851 0.725453 -0.127622 0.666404 0.733896 -0.131537
0.725453 -0.127622 0.654851 0.733896 -0.131537 0.666404
-0.127622 0.654851 0.725453 -0.131537 0.666404 0.733896
-0.824006 -0.53586 -0.0186269 0.833146 0.552543 0.0237533
-0.53586 -0.0186269 -0.824006 0.552543 0.0237533 0.833146
-0.206496 -0.448355 0.853075 -0.212831 -0.453573 0.865433
0.853075 -0.206496 -0.448355 0.865433 -0.212831 -0.453573
-0.448355 0.853075 -0.206496 0.453573 -0.865433 0.212831
0.60307 -0.78093 0.0101958 0.610833 -0.791656 0.0128015
0.678838 0.392949 0.592662 -0.692596 -0.390417 -0.606535
-0.962393 0.0884139 0.183772 -0.977205 0.0899422 0.192303
0.0884139 0.183772 -0.962393 -0.0899421 -0.192303 0.977205
0.457651 0.134929 0.859463 -0.474001 -0.131764 -0.87061
0.859463 0.457651 0.134929 0.87061 0.474001 0.131765
0.068463 0.450525 -0.875208 -0.0711374 -0.458106 0.886046
-0.875208 0.068463 0.450525 0.886046 -0.071138 -0.458106
0.450525 -0.875208 0.068463 0.458106 -0.886046 0.0711374
-0.252705 0.554062 0.773306 -0.252819 0.55929 0.789479
0.554062 0.773306 -0.252705 -0.55929 -0.789479 0.252819
-0.859463 0.457651 -0.134929 0.87061 -0.474001 0.131764
0.359844 -0.46081 -0.791174 0.36082 -0.470889 -0.805029
-0.791174 0.359844 -0.46081 0.805029 -0.36082 0.470889
0.536011 0.586264 0.578524 0.534703 0.602751 0.59227
0.46081 0.791174 -0.359843 0.470889 0.805029 -0.36082
-0.359843 0.46081 0.791174 -0.36082 0.470889 0.805029
0.206496 -0.448355 0.853075 0.212831 -0.453573 0.865433
0.853075 0.206496 -0.448355 0.865433 0.212831 -0.453573
-0.448355 0.853075 0.206496 0.453573 -0.865433 -0.212831
0.592662 -0.678838 0.392949 -0.606535 0.692596 -0.390417
0.0366124 -0.982509 0 0.0466063 -0.998913 -2.19567e-07
-0.917207 -0.350672 0.0382637 0.932768 0.356733 -0.0518137
-0.350672 0.0382637 -0.917207 -0.356733 0.0518137 -0.932768
-0.321918 0.80618 -0.461634 -0.331984 0.82254 -0.461752
0.80618 -0.461634 -0.321918 0.82254 -0.461751 -0.331984
0.773306 -0.252705 -0.554062 0.789479 -0.252819 -0.55929
0.783553 -0.520875 0.285306 0.793736 -0.537162 0.285378
-0.10058 0.534607 -0.823243 0.102302 -0.539695 0.835622
-0.823243 -0.10058 0.534607 0.835622 0.102302 -0.539695
-0.231344 0.169574 0.940321 0.226611 -0.177684 -0.957641
0.169574 0.940321 -0.231344 0.177684 0.957641 -0.226611
0.965841 0.17915 0.0371944 -0.982056 -0.182231 -0.0485594
-0.859463 -0.457651 0.134929 0.87061 0.474001 -0.131765
-0.457651 0.134929 -0.859463 0.474001 -0.131765 0.87061
0.928808 0.261483 0.188201 -0.942961 -0.265044 -0.201437
0.359844 0.46081 -0.791174 0.36082 0.47089 -0.805029
0.657192 0.277038 -0.677597 -0.671973 -0.278587 0.686179
-0.677597 0.657192 0.277038 0.686179 -0.671973 -0.278587
0.654851 -0.725453 0.127622 0.666404 -0.733896 0.131537
-0.725453 0.127622 0.654851 0.733896 -0.131537 -0.666404
0.127622 0.654851 -0.725453 -0.131537 -0.666404 0.733896
0.461994 0.7033 0.50819 0.47518 0.71839 0.508055
0.823243 -0.10058 0.534607 0.835622 -0.102302 0.539695
0.912989 0.166376 -0.32805 0.92534 0.168853 -0.339462
-0.592662 0.678838 -0.392949 -0.606535 0.692596 -0.390417
0.17915 0.0371944 -0.965841 0.182231 0.0485589 -0.982056
0.853075 -0.206496 0.448355 0.865433 -0.212831 0.453573
-0.853075 0.206496 0.448355 0.865433 -0.212831 -0.453573
0.206496 0.448355 -0.853075 -0.212831 -0.453573 0.865433
-0.534607 -0.823243 -0.10058 -0.539695 -0.835622 -0.102302
-0.10058 -0.534607 -0.823243 0.102302 0.539695 0.835622
-0.823243 -0.10058 -0.534607 0.835622 0.102302 0.539695
0.183772 -0.962393 -0.0884139 -0.192303 0.977205 0.0899425
-0.860368 -0.0301389 0.482971 -0.877671 -0.0400766 0.477585
0.305201 -0.317753 0.879588 0.305232 -0.325359 0.894972
-0.461994 0.7033 0.50819 -0.47518 0.71839 0.508055
0.7033 0.50819 -0.461994 0.71839 0.508055 -0.475179
-0.791174 -0.359844 -0.46081 0.805029 0.36082 0.470889
-0.166376 0.32805 -0.912989 0.168852 -0.339461 0.92534
-0.912989 -0.166376 0.32805 0.92534 0.168853 -0.339462
0.766011 0.60255 0.133982 0.776122 0.616385 0.133057
0.60255 0.133982 0.766011 -0.616385 -0.133057 -0.776122
0.133982 0.766011 0.60255 0.133057 0.776122 0.616385
-0.928809 -0.261483 -0.188201 -0.94296 -0.265045 -0.201438
-0.166376 -0.32805 -0.912989 -0.168852 -0.339462 -0.92534
-0.32805 -0.912989 -0.166376 0.339462 0.92534 0.168852
0.231344 0.169574 0.94032 -0.226611 -0.177684 -0.957641
0.169574 0.94032 0.231344 -0.177684 -0.957641 -0.226611
-0.697465 0.404461 -0.562523 0.71635 -0.405098 0.568101
0.0164972 0.720438 0.670479 0.0203894 0.728143 0.685122
0.78093 0.0101958 0.60307 0.791656 0.0128015 0.610833
-0.450525 0.875208 0.068463 0.458106 -0.886046 -0.0711374
0.875208 0.068463 -0.450525 0.886046 0.071138 -0.458106
0.166376 -0.32805 -0.912989 0.168852 -0.339462 -0.92534
-0.912989 0.166376 -0.32805 0.92534 -0.168853 0.339462
-0.32805 -0.912989 0.166376 0.339461 0.92534 -0.168852
0.068463 -0.450525 0.875208 0.0711374 -0.458106 0.886046
-0.791174 0.359844 0.46081 0.805029 -0.36082 -0.470889
0.461994 -0.7033 -0.50819 -0.475179 0.71839 0.508055
-0.305201 -0.317753 -0.879588 -0.305232 -0.325359 -0.894972
-0.317753 -0.879588 -0.305201 -0.325359 -0.894972 -0.305232
-0.50819 0.461994 0.7033 0.508055 -0.47518 -0.71839
-0.965841 -0.17915 -0.0371944 -0.982056 -0.182231 -0.0485589
-0.169574 0.940321 0.231344 0.177684 -0.957641 -0.226611
0.940321 0.231344 -0.169574 -0.957641 -0.226611 0.177684
0.231344 -0.169574 0.940321 -0.226611 0.177684 -0.957641
0.166376 0.32805 0.912989 -0.168852 -0.339462 -0.92534
0.32805 0.912989 0.166376 0.339462 0.92534 0.168852
0.0301389 0.482971 -0.860368 -0.0400762 -0.477585 0.877671
-0.7033 0.50819 -0.461994 0.71839 -0.508055 0.475179
0.50819 -0.461994 -0.7033 0.508055 -0.475179 -0.71839
-0.912989 -0.166376 -0.32805 0.92534 0.168853 0.339462
-0.277038 -0.677597 0.657192 0.278586 0.68618 -0.671973
0.10058 0.534607 -0.823243 -0.102302 -0.539695 0.835622
0.534607 -0.823243 0.10058 -0.539695 0.835622 -0.102302
-0.586264 0.578524 -0.536011 -0.602751 0.59227 -0.534703
-0.965841 0.17915 0.0371944 -0.982056 0.182231 0.0485589
0.321918 0.80618 0.461634 -0.331984 -0.82254 -0.461751
0.7033 -0.50819 -0.461994 0.71839 -0.508055 -0.475179
-0.46081 -0.791174 0.359844 0.47089 0.805029 -0.36082
-0.853075 -0.206496 0.448355 0.865433 0.212831 -0.453573
-0.206496 0.448355 -0.853075 0.212831 -0.453573 0.865433
0.277038 0.677597 0.657192 -0.278586 -0.68618 -0.671973
-0.305201 -0.317753 0.879588 -0.305232 -0.325359 0.894972
-0.317753 0.879588 -0.305201 -0.325359 0.894972 -0.305232
-0.068463 0.450525 0.875208 -0.0711374 0.458106 0.886046
0.875208 -0.068463 0.450525 0.886046 -0.0711374 0.458106
0.450525 0.875208 -0.068463 -0.458106 -0.886046 0.0711374
0.677597 0.657192 -0.277038 0.68618 0.671973 -0.278586
-0.277038 0.677597 0.657192 0.278586 -0.68618 -0.671973
0.962393 -0.0884139 0.183772 -0.977205 0.0899422 -0.192303
0.10058 0.534607 0.823243 0.102302 0.539695 0.835622
0.534607 0.823243 0.10058 -0.539695 -0.835622 -0.102302
0.561876 0.811602 0 0.582507 0.812826 0
0.457651 -0.134929 0.859463 -0.474001 0.131765 -0.87061
0.859463 0.457651 -0.134929 0.87061 0.474001 -0.131765
-0.982509 0 -0.0366124 -0.998913 0 -0.0466064
-0.657192 -0.277038 -0.677597 -0.671973 -0.278587 -0.686179
0.520875 -0.285306 -0.783553 0.537162 -0.285378 -0.793736
-0.359844 -0.46081 0.791174 0.36082 0.47089 -0.805029
0.791174 -0.359844 -0.46081 0.805029 -0.36082 -0.470889
0.46081 -0.791174 0.359844 -0.470889 0.805029 -0.36082
-0.501598 0.848856 0 -0.481573 0.876406 4.6612e-08
0 -0.501598 0.848856 0 -0.481573 0.876406
0.381196 0.019399 0.905548 -0.398066 -0.0262685 -0.916981
0.60307 0.78093 0.0101958 -0.610833 -0.791656 -0.0128015
-0.457651 -0.134929 0.859463 0.474001 0.131764 -0.87061
0.860368 0.0301389 -0.482971 -0.877671 -0.0400768 0.477585
-0.10058 0.534607 0.823243 -0.102302 0.539695 0.835622
0.534607 0.823243 -0.10058 -0.539695 -0.835622 0.102302
-0.7033 -0.50819 -0.461994 0.71839 0.508055 0.47518
0.320733 -0.93195 0 0.322036 -0.946727 -2.24339e-07
-0.0101958 0.60307 0.78093 -0.0128015 0.610833 0.791656
0.917207 0.350672 -0.0382637 0.932769 0.356733 -0.0518138
-0.169574 0.940321 -0.231344 -0.177684 0.957641 -0.226611
0.940321 -0.231344 -0.169574 -0.957641 0.226611 0.177684
-0.231344 -0.169574 0.940321 -0.226611 -0.177684 0.957641
0.392949 0.592662 -0.678838 0.390417 0.606535 -0.692596
0.51311 -0.841741 0.0186269 0.511611 -0.857842 0.048602
0.133982 -0.766011 0.60255 0.133056 -0.776122 0.616385
0.60255 0.133982 -0.766011 -0.616385 -0.133057 0.776122
-0.766011 0.60255 0.133982 0.776122 -0.616385 -0.133056
0.277038 -0.677597 0.657192 -0.278586 0.68618 -0.671973
0.657192 -0.277038 -0.677597 -0.671973 0.278587 0.686179
-0.677597 0.657192 -0.277038 0.686179 -0.671973 0.278587
-0.7033 0.50819 0.461994 0.71839 -0.508055 -0.475179
-0.450525 -0.875208 0.068463 -0.458106 -0.886046 0.0711374
-0.875208 0.068463 -0.450525 0.886046 -0.0711379 0.458106
0.17915 -0.0371944 0.965841 -0.182231 0.0485589 -0.982056
-0.0371944 0.965841 0.17915 -0.0485589 0.982056 0.182231
0.068463 -0.450525 -0.875208 -0.0711374 0.458106 0.886046
-0.134929 -0.859463 0.457651 -0.131764 -0.87061 0.474001
-0.32805 0.912989 -0.166376 -0.339461 0.92534 -0.168852
0.912989 -0.166376 -0.32805 0.92534 -0.168853 -0.339462
-0.166376 -0.32805 0.912989 -0.168852 -0.339461 0.92534
0 -0.320733 0.93195 2.25898e-07 0.322036 -0.946727
0.0371944 -0.965841 -0.17915 0.0485594 -0.982056 -0.182231
-0.536011 -0.586264 0.578524 0.534703 0.602751 -0.59227
0.321918 0.80618 -0.461634 0.331984 0.82254 -0.461752
0.592662 -0.678838 -0.392949 -0.606535 0.692597 0.390417
-0.127622 -0.654851 0.725453 -0.131537 -0.666404 0.733896
0.725453 -0.127622 -0.654851 0.733896 -0.131537 -0.666404
-0.654851 0.725453 -0.127622 0.666404 -0.733896 0.131537
0.853075 0.206496 0.448355 0.865433 0.212831 0.453573
-0.0101958 0.60307 -0.78093 0.0128014 -0.610833 0.791656
-0.554062 -0.773306 0.252705 -0.559291 -0.789479 0.252819
-0.0186269 0.824006 0.53586 -0.0237534 0.833146 0.552543
0.53586 -0.0186269 0.824006 -0.552543 0.0237534 -0.833146
-0.697465 -0.404461 -0.562523 0.71635 0.405098 0.568101
0.7033 -0.50819 0.461994 0.71839 -0.508055 0.475179
0.183772 -0.962393 0.0884139 -0.192303 0.977205 -0.0899422
0.912989 0.166376 0.32805 0.92534 0.168852 0.339462
-0.166376 0.32805 0.912989 0.168852 -0.339462 -0.92534
0.32805 0.912989 -0.166376 0.339462 0.92534 -0.168852
-0.17915 0.0371944 -0.965841 -0.182231 0.0485593 -0.982056
0.554876 -0.597923 -0.548 0.560248 -0.618539 -0.550938
0.766011 -0.60255 -0.133982 0.776122 -0.616385 -0.133057
-0.60255 -0.133982 0.766011 -0.616385 -0.133056 0.776122
-0.133982 0.766011 -0.60255 0.133057 -0.776122 0.616385
-0.534607 0.823243 0.10058 -0.539695 0.835622 0.102302
0.0188648 -0.929196 -0.319284 -0.0255451 0.949003 0.314229
0.928809 -0.261483 0.188201 -0.94296 0.265045 -0.201437
-0.657192 -0.277038 0.677597 -0.671973 -0.278587 0.686179
-0.277038 0.677597 -0.657192 -0.278587 0.68618 -0.671973
0 -0.0366124 -0.982509 2.19567e-07 -0.0466063 -0.998913
0 -0.501598 -0.848856 0 0.481573 0.876406
-0.134929 -0.859463 -0.457651 0.131765 0.87061 0.474001
0.448355 -0.853075 -0.206496 0.453573 -0.865433 -0.212831
0.520875 0.285306 0.783553 -0.537162 -0.285378 -0.793736
0.783553 0.520875 0.285306 0.793736 0.537162 0.285378
0.50819 -0.461994 0.7033 0.508055 -0.47518 0.71839
-0.277038 -0.677597 -0.657192 -0.278587 -0.686179 -0.671973
-0.677597 -0.657192 -0.277038 0.686179 0.671973 0.278587
-0.534607 -0.823243 0.10058 -0.539695 -0.835622 0.102302
-0.823243 0.10058 -0.534607 0.835622 -0.102302 0.539695
0.10058 -0.534607 -0.823243 -0.102302 0.539695 0.835622
0.359843 -0.46081 0.791174 -0.36082 0.470889 -0.805029
-0.0884139 -0.183772 -0.962393 -0.0899422 -0.192303 -0.977205
-0.962393 -0.0884139 -0.183772 -0.977205 -0.0899422 -0.192303
-0.183772 -0.962393 -0.0884139 0.192303 0.977205 0.0899421
0.231344 -0.169574 -0.94032 0.226611 -0.177684 -0.957641
-0.321918 0.80618 0.461634 0.331984 -0.82254 -0.461751
0.461634 -0.321918 0.80618 0.461751 -0.331984 0.82254
0.80618 0.461634 -0.321918 0.82254 0.461751 -0.331984
0.46081 -0.791174 -0.359844 -0.47089 0.805029 0.36082
-0.791174 -0.359844 0.46081 0.805029 0.36082 -0.470889
-0.359844 0.46081 -0.791174 0.36082 -0.470889 0.805029
0.127622 -0.654851 -0.725453 -0.131537 0.666404 0.733896
-0.725453 0.127622 -0.654851 0.733896 -0.131537 0.666404
-0.654851 -0.725453 0.127622 0.666404 0.733896 -0.131537
0.592662 0.678838 -0.392949 -0.606535 -0.692597 0.390417
0.93195 0 -0.320733 0.946727 -2.24339e-07 -0.322036
-0.320733 0.93195 0 0.322036 -0.946727 2.24339e-07
0.404461 -0.562523 -0.697465 -0.405098 0.568101 0.71635
-0.561876 -0.811602 0 0.582507 0.812826 0
-0.811602 0 -0.561876 -0.812826 0 -0.582507
-0.78093 0.0101958 0.60307 0.791656 -0.0128016 -0.610833
-0.520875 -0.285306 0.783553 -0.537162 -0.285378 0.793736
0.134929 -0.859463 -0.457651 -0.131765 0.87061 0.474001
0.677597 -0.657192 -0.277038 0.686179 -0.671973 -0.278586
0.448355 0.853075 0.206496 -0.453573 -0.865433 -0.212831
0.206496 0.448355 0.853075 -0.212831 -0.453573 -0.865433
0.982509 0 -0.0366124 0.998913 2.19567e-07 -0.0466063
0.183772 0.962393 -0.0884139 0.192303 0.977205 -0.0899422
0.320733 0.93195 0 -0.322036 -0.946727 -2.24339e-07
0 0.320733 0.93195 -2.2278e-07 -0.322036 -0.946727
0.0382637 0.917207 -0.350672 0.0518137 0.932768 -0.356733
-0.824006 0.53586 -0.0186269 0.833146 -0.552543 0.0237533
-0.252705 0.554062 -0.773306 0.252819 -0.559291 0.789479
-0.773306 -0.252705 0.554062 0.789479 0.252819 -0.55929
-0.0186269 -0.824006 0.53586 -0.0237533 -0.833146 0.552543
-0.93195 0 0.320733 0.946727 2.24339e-07 -0.322036
0 0.320733 -0.93195 2.24339e-07 -0.322036 0.946727
0.773306 0.252705 0.554062 0.789479 0.252819 0.55929
0.592662 0.678838 0.392949 -0.606535 -0.692596 -0.390417
0.962393 0.0884139 0.183772 -0.977205 -0.0899425 -0.192303
-0.169574 -0.940321 -0.231344 -0.177684 -0.957641 -0.226611
0.206496 -0.448355 -0.853075 0.212831 -0.453573 -0.865433
-0.853075 0.206496 -0.448355 0.865433 -0.212831 0.453573
-0.448355 -0.853075 0.206496 -0.453573 -0.865433 0.212831
-0.783553 0.520875 0.285306 0.793736 -0.537162 -0.285378
0.448355 0.853075 -0.206496 -0.453573 -0.865433 0.212831
-0.206496 0.448355 0.853075 0.212831 -0.453573 -0.865433
0.134929 0.859463 0.457651 0.131765 0.87061 0.474001
-0.859463 -0.457651 -0.134929 0.87061 0.474001 0.131764
-0.457651 -0.134929 -0.859463 -0.474001 -0.131764 -0.87061
0.678838 -0.392949 0.592662 -0.692596 0.390417 -0.606535
-0.127622 -0.654851 -0.725453 0.131537 0.666404 0.733896
-0.725453 -0.127622 -0.654851 0.733896 0.131537 0.666404
-0.654851 -0.725453 -0.127622 0.666404 0.733896 0.131537
-0.359844 -0.46081 -0.791174 -0.36082 -0.47089 -0.805029
-0.46081 -0.791174 -0.359844 0.47089 0.805029 0.36082
0.317753 -0.879588 -0.305201 0.32536 -0.894972 -0.305232
-0.879588 -0.305201 0.317753 0.894972 0.305232 -0.32536
0.791174 -0.359844 0.46081 0.805029 -0.36082 0.47089
-0.823243 0.10058 0.534607 0.835622 -0.102302 -0.539695
0.879588 0.305201 0.317753 0.894972 0.305232 0.32536
0.879588 -0.305201 -0.317753 0.894972 -0.305232 -0.32536
-0.0186269 0.824006 -0.53586 0.0237533 -0.833146 0.552543
0.824006 -0.53586 -0.0186269 0.833146 -0.552543 -0.0237533
0.252705 0.554062 0.773306 0.252819 0.559291 0.789479
0.554062 0.773306 0.252705 -0.559291 -0.789479 -0.252819
-0.60307 -0.78093 0.0101958 -0.610833 -0.791656 0.0128015
-0.78093 0.0101958 -0.60307 0.791656 -0.0128015 0.610833
0.0101958 -0.60307 -0.78093 -0.0128015 0.610833 0.791656
-0.0164972 0.720438 -0.670479 0.0203894 -0.728143 0.685122
-0.670479 -0.0164972 0.720438 -0.685122 -0.0203894 0.728143
0.720438 -0.670479 -0.0164972 -0.728143 0.685122 0.0203895
0.773305 0.252705 -0.554062 0.789479 0.252819 -0.55929
-0.0884139 0.183772 0.962393 -0.0899422 0.192303 0.977205
0.657192 -0.277038 0.677597 -0.671973 0.278587 -0.686179
0.965841 -0.17915 0.0371944 -0.982056 0.182231 -0.0485589
0.766011 -0.60255 0.133982 0.776122 -0.616385 0.133056
-0.60255 0.133982 0.766011 -0.616385 0.133056 0.776122
0.133982 0.766011 -0.60255 -0.133057 -0.776122 0.616385
-0.80618 0.461635 -0.321918 0.82254 -0.461751 0.331985
-0.17915 -0.0371944 0.965841 0.182231 0.0485593 -0.982056
-0.0371944 0.965841 -0.17915 -0.0485593 0.982056 -0.182231
-0.321918 -0.80618 -0.461634 -0.331984 -0.82254 -0.461752
-0.962393 -0.0884139 0.183772 -0.977205 -0.0899426 0.192303
-0.0884139 0.183772 -0.962393 0.0899426 -0.192303 0.977205
-0.457651 0.134929 0.859463 -0.474001 0.131764 0.87061
0.134929 0.859463 -0.457651 -0.131765 -0.87061 0.474001
-0.206496 -0.448355 -0.853075 -0.212831 -0.453573 -0.865433
-0.853075 -0.206496 -0.448355 0.865433 0.212831 0.453573
-0.448355 -0.853075 -0.206496 -0.453573 -0.865433 -0.212831
0.791174 0.359844 -0.46081 0.805029 0.36082 -0.470889
0.697465 0.404461 -0.562523 0.71635 0.405097 -0.568101
0.10058 -0.534607 0.823243 0.102302 -0.539695 0.835622
-0.461994 -0.7033 0.50819 0.475179 0.71839 -0.508055
0.127622 -0.654851 0.725453 0.131537 -0.666404 0.733896
0.725453 0.127622 -0.654851 0.733896 0.131537 -0.666404
-0.654851 0.725453 0.127622 0.666404 -0.733896 -0.131537
-0.461994 0.7033 -0.50819 -0.475179 0.71839 -0.508055
-0.50819 -0.461994 0.7033 -0.508055 -0.475179 0.71839
-0.450525 0.875208 -0.068463 0.458106 -0.886046 0.0711373
0.875208 -0.068463 -0.450525 0.886046 -0.0711379 -0.458106
-0.068463 -0.450525 0.875208 -0.0711374 -0.458106 0.886046
-0.720438 0.670479 -0.0164972 -0.728143 0.685122 -0.0203894
0.670479 -0.0164972 -0.720438 -0.685122 0.0203894 0.728143
-0.0164972 -0.720438 0.670479 -0.0203894 -0.728143 0.685122
-0.536011 0.586264 0.578524 -0.534703 0.602751 0.59227
-0.0115121 0.531737 0.830229 -0.0300373 0.560213 0.827804
0.823243 0.10058 0.534607 0.835622 0.102302 0.539695
0.823243 0.10058 -0.534607 0.835622 0.102302 -0.539695
0.285306 -0.783553 -0.520875 0.285378 -0.793736 -0.537162
0.824006 0.53586 0.0186269 0.833146 0.552543 0.0237532
-0.773305 -0.252705 -0.554062 0.789479 0.25282 0.55929
-0.133982 -0.766011 -0.60255 0.133057 0.776122 0.616385
-0.60255 -0.133982 -0.766011 -0.616385 -0.133056 -0.776122
-0.766011 -0.60255 -0.133982 0.776122 0.616385 0.133056
-0.657192 0.277038 0.677597 -0.671973 0.278587 0.686179
0.461634 0.321918 -0.80618 -0.461752 -0.331984 0.82254
0.534607 -0.823243 -0.10058 -0.539695 0.835622 0.102302
0.32805 -0.912989 0.166376 -0.339462 0.92534 -0.168852
-0.305201 0.317753 -0.879588 0.305232 -0.325359 0.894972
-0.520875 -0.285306 -0.783553 -0.537162 -0.285378 -0.793736
-0.783553 -0.520875 -0.285306 0.793736 0.537162 0.285378
0.321918 -0.80618 0.461634 0.331984 -0.82254 0.461751
-0.592662 -0.678838 0.392949 -0.606535 -0.692596 0.390417
-0.231344 -0.169574 -0.940321 -0.226611 -0.177684 -0.957641
0.78093 0.0101958 -0.60307 0.791656 0.0128016 -0.610833
0.0101958 -0.60307 0.78093 0.0128015 -0.610833 0.791656
-0.133982 -0.766011 0.60255 -0.133057 -0.776122 0.616385
0.60255 -0.133982 -0.766011 -0.616385 0.133057 0.776122
-0.766011 0.60255 -0.133982 0.776122 -0.616385 0.133056
0.317753 -0.879588 0.305201 -0.325359 0.894972 -0.305232
-0.879588 0.305201 0.317753 0.894972 -0.305232 -0.32536
0.879588 0.305201 -0.317753 0.894972 0.305232 -0.32536
-0.317753 0.879588 0.305201 -0.325359 0.894972 0.305232
-0.720438 -0.670479 0.0164972 -0.728143 -0.685122 0.0203894
0.0164972 -0.720438 -0.670479 -0.0203894 0.728143 0.685122
-0.392949 0.592662 0.678838 -0.390417 0.606535 0.692597
0.7033 0.50819 0.461994 0.71839 0.508055 0.47518
-0.80618 -0.461634 0.321918 0.82254 0.461751 -0.331985
-0.461634 0.321918 -0.80618 0.461752 -0.331984 0.82254
-0.0884139 -0.183772 0.962393 -0.0899426 -0.192303 0.977205
0.962393 -0.0884139 -0.183772 -0.977205 0.0899426 0.192303
-0.183772 0.962393 -0.0884139 -0.192303 0.977205 -0.0899426
2.28025e-09 -0.0366124 0.982509 2.1921e-07 -0.0466063 0.998913
0.305201 0.317753 -0.879588 -0.305232 -0.32536 0.894972
-0.172123 0.88245 0.397469 0.180324 -0.900621 -0.39543
0.860368 -0.0301389 0.482971 -0.877671 0.0400762 -0.477585
0.0366124 0.982509 0 -0.0466063 -0.998913 -2.19567e-07
0.457651 0.134929 -0.859463 0.474001 0.131764 -0.87061
0.134929 -0.859463 0.457651 0.131764 -0.87061 0.474001
0.93195 0 0.320733 0.946727 2.24339e-07 0.322036
0.188201 -0.928808 -0.261483 0.201437 -0.942961 -0.265044
0.677597 -0.657192 0.277038 0.686179 -0.671973 0.278587
0.277038 0.677597 -0.657192 0.278587 0.686179 -0.671973
-0.60307 0.78093 -0.0101958 0.610833 -0.791656 0.0128014
-0.0371944 -0.965841 0.17915 0.0485593 0.982056 -0.182231
-0.534607 0.823243 -0.10058 -0.539695 0.835622 -0.102302
0.823243 -0.10058 -0.534607 0.835622 -0.102302 -0.539695
-0.10058 -0.534607 0.823243 -0.102302 -0.539695 0.835622
0.0188648 0.929196 0.319284 0.0255451 0.949003 0.314229
-0.592662 -0.678838 -0.392949 -0.606535 -0.692596 -0.390417
0.50819 0.461994 0.7033 -0.508055 -0.47518 -0.71839
0.305201 -0.317753 -0.879588 -0.305232 0.325359 0.894972
-0.317753 -0.879588 0.305201 -0.325359 -0.894972 0.305232
0 -0.320733 -0.93195 2.24339e-07 -0.322036 -0.946727
-0.93195 0 -0.320733 0.946727 -2.24339e-07 0.322036
-0.320733 -0.93195 0 -0.322036 -0.946727 2.24339e-07
0.457651 -0.134929 -0.859463 -0.474001 0.131764 0.87061
-0.068463 0.450525 -0.875208 -0.0711373 0.458106 -0.886046
-0.875208 -0.068463 0.450525 0.886046 0.0711379 -0.458106
0.450525 -0.875208 -0.068463 0.458106 -0.886046 -0.0711374
-0.46081 0.791174 0.359844 -0.470889 0.805029 0.36082
0.0884139 0.183772 0.962393 -0.0899425 -0.192303 -0.977205
0.0186269 -0.824006 -0.53586 -0.0237532 0.833146 0.552543
-0.554062 0.773306 -0.252705 -0.559291 0.789479 -0.252819
-0.252705 -0.554062 0.773306 -0.252819 -0.559291 0.789479
0.317753 0.879588 -0.305201 -0.325359 -0.894972 0.305232
-0.305201 0.317753 0.879588 0.305232 -0.325359 -0.894972
-0.53586 0.0186269 0.824006 -0.552543 0.0237533 0.833146
0.791174 0.359844 0.46081 0.805029 0.36082 0.470889
0.359844 0.46081 0.791174 0.36082 0.47089 0.805029
-0.32805 0.912989 0.166376 -0.339462 0.92534 0.168852
0.166376 -0.32805 0.912989 0.168852 -0.339462 0.92534
0.677597 0.657192 0.277038 0.686179 0.671973 0.278587
0.657192 0.277038 0.677597 -0.671973 -0.278586 -0.686179
-0.7033 -0.50819 0.461994 0.71839 0.508055 -0.475179
-0.50819 0.461994 -0.7033 0.508055 -0.475179 0.71839
0.766011 0.60255 -0.133982 0.776122 0.616385 -0.133057
0.60255 -0.133982 0.766011 -0.616385 0.133057 -0.776122
-0.133982 0.766011 0.60255 -0.133057 0.776122 0.616385
-0.231344 0.169574 -0.940321 -0.226611 0.177684 -0.957641
-0.940321 -0.231344 0.169574 -0.957641 -0.226611 0.177684
0.461994 -0.7033 0.50819 -0.47518 0.71839 -0.508055
0.879588 -0.305201 0.317753 0.894972 -0.305232 0.325359
0.917207 -0.350672 -0.0382637 0.932768 -0.356733 -0.0518137
-0.670479 -0.0164972 -0.720438 -0.685122 -0.0203894 -0.728143
0.0884139 -0.183772 0.962393 0.0899421 -0.192303 0.977205
0.697465 -0.404461 -0.562523 0.71635 -0.405097 -0.568101
-0.46081 0.791174 -0.359843 -0.47089 0.805029 -0.36082
0.912989 -0.166376 0.32805 0.92534 -0.168852 0.339462
0.019399 -0.905548 0.381196 0.0262685 -0.916981 0.398066
-0.554062 0.773306 0.252705 -0.559291 0.789479 0.252819
0.317753 0.879588 0.305201 -0.325359 -0.894972 -0.305232
0.305201 0.317753 0.879588 0.305232 0.325359 0.894972
-0.450525 -0.875208 -0.068463 -0.458106 -0.886046 -0.0711374
-0.068463 -0.450525 -0.875208 0.0711374 0.458106 0.886046
-0.875208 -0.068463 -0.450525 0.886046 0.0711379 0.458106
-0.879588 0.305201 -0.317753 0.894972 -0.305232 0.32536
-0.134929 0.859463 -0.457651 0.131765 -0.87061 0.474001
0.536011 -0.586264 0.578524 -0.534703 0.602751 -0.59227
0.859463 -0.457651 -0.134929 0.87061 -0.474001 -0.131765
0.548 0.554876 -0.597923 0.550937 0.560248 -0.618539
-0.773305 0.252705 0.554062 0.789479 -0.25282 -0.55929
0.962393 0.0884139 -0.183772 -0.977205 -0.0899421 0.192303
-0.183772 0.962393 0.0884139 -0.192303 0.977205 0.0899421
0.654851 -0.725453 -0.127622 0.666404 -0.733896 -0.131537
-0.725453 -0.127622 0.654851 0.733896 0.131537 -0.666404
-0.127622 0.654851 -0.725453 0.131537 -0.666404 0.733896
0.554062 -0.773306 -0.252705 -0.55929 0.789479 0.252819
0.50819 0.461994 -0.7033 -0.508055 -0.475179 0.71839
-0.392949 -0.592662 0.678838 -0.390417 -0.606535 0.692597
-0.912989 0.166376 0.32805 0.92534 -0.168853 -0.339462
0.670479 -0.0164972 0.720438 -0.685122 0.0203894 -0.728143
0.720438 0.670479 -0.0164972 -0.728143 -0.685122 0.0203894
-0.50819 -0.461994 -0.7033 -0.508055 -0.47518 -0.71839
0.277038 -0.677597 -0.657192 0.278587 -0.686179 -0.671973
-0.657192 0.277038 -0.677597 -0.671973 0.278587 -0.68618
-0.677597 -0.657192 0.277038 0.686179 0.671973 -0.278587
-0.169574 -0.940321 0.231344 0.177684 0.957641 -0.226611
-0.940321 0.231344 -0.169574 -0.957641 0.226611 -0.177684
0.183772 0.962393 0.0884139 0.192303 0.977205 0.0899425
0.252705 -0.554062 -0.773306 -0.252819 0.559291 0.789479
-0.773306 0.252705 -0.554062 0.789479 -0.252819 0.55929
-0.879588 -0.305201 -0.317753 0.894972 0.305232 0.32536
-0.905548 0.381196 -0.019399 0.916981 -0.398066 0.0262685
-0.381196 -0.019399 0.905548 -0.398066 -0.0262685 0.916981
-0.461634 0.321918 0.80618 0.461751 -0.331984 -0.82254
-0.461994 -0.7033 -0.50819 0.475179 0.71839 0.508055
0.068463 0.450525 0.875208 0.0711374 0.458106 0.886046
0.875208 0.068463 0.450525 0.886046 0.0711374 0.458106
0.450525 0.875208 0.068463 -0.458106 -0.886046 -0.0711374
0.166376 0.32805 -0.912989 -0.168852 -0.339462 0.92534
-0.578524 -0.536011 -0.586264 0.59227 0.534703 0.602751
0.392949 0.592662 0.678838 -0.390417 -0.606535 -0.692596
0.535859 0.0186269 -0.824006 0.552543 0.0237534 -0.833146
-0.592662 0.678838 0.392949 -0.606535 0.692596 0.390417
-0.697465 0.404461 0.562523 0.71635 -0.405098 -0.568101
0.448355 -0.853075 0.206496 0.453573 -0.865433 0.212831
0.461994 0.7033 -0.50819 0.475179 0.71839 -0.508055
0.252705 -0.554062 0.773306 0.252819 -0.55929 0.789479
0.654851 0.725453 0.127622 0.666404 0.733896 0.131537
0.725453 0.127622 0.654851 0.733896 0.131537 0.666404
0.127622 0.654851 0.725453 0.131537 0.666404 0.733896
-0.321918 -0.80618 0.461634 0.331984 0.82254 -0.461751
0.252705 0.554062 -0.773306 -0.25282 -0.55929 0.789479
0.554062 -0.773306 0.252705 -0.55929 0.789479 -0.252819
0.392949 -0.592662 0.678838 -0.390417 0.606535 -0.692597
0.773306 -0.252705 0.554062 0.789479 -0.252819 0.55929
-0.859463 0.457651 0.134929 0.87061 -0.474001 -0.131764
-0.404461 -0.562523 -0.697465 0.405098 0.568101 0.716349
-0.404461 0.562523 -0.697465 -0.405098 0.568101 -0.716349
-0.697465 -0.404461 0.562523 0.71635 0.405098 -0.568101
0.859463 -0.457651 0.134929 0.87061 -0.474001 0.131764
0.0884139 -0.183772 -0.962393 -0.0899425 0.192303 0.977205
-0.962393 0.0884139 -0.183772 -0.977205 0.0899426 -0.192303
-0.183772 -0.962393 0.0884139 0.192303 0.977205 -0.0899426
0.231344 0.169574 -0.940321 0.226611 0.177684 -0.957641
0.319284 -0.0188648 -0.929196 0.314229 -0.0255451 -0.949003
0.46081 0.791174 0.359844 0.47089 0.805029 0.36082
-0.252705 -0.554062 -0.773306 0.252819 0.559291 0.789479
-0.554062 -0.773306 -0.252705 -0.559291 -0.789479 -0.252819
0.32805 -0.912989 -0.166376 -0.339462 0.92534 0.168852
